-0.17705405 -1.76176155 0.18659240 0.012033 0.482654 -0.875729
-0.04723068 -1.73240066 0.20487770 0.006541 0.433019 -0.901361
-0.57030016 -1.60151875 0.24294069 0.185504 0.177721 -0.966439
-0.59158677 -1.58601725 0.24706021 0.206570 0.159800 -0.965294
-0.55328053 -1.72448158 0.18501392 0.132038 0.430188 -0.893031
-0.86084366 -1.51661348 -0.05502136 0.948930 -0.315485 0.001237
-0.85892028 -1.49344289 -0.07644213 0.830979 -0.540796 0.130436
-0.86212605 -1.53206241 -0.13260648 0.981760 -0.180128 0.060838
-0.85836899 -1.49140990 -0.14715882 0.661055 -0.644570 0.384104
-0.77579582 -1.15995657 -0.61057007 -0.375233 -0.896144 -0.236912
-0.60854322 -1.17977846 -0.66054034 -0.726005 -0.678689 -0.110897
-0.74949944 -1.47854412 0.19294044 0.526150 -0.539598 -0.657267
-0.62478191 -1.49777925 0.24598938 0.286506 -0.310014 -0.906535
-0.63380826 -1.51072085 0.24718806 0.298664 -0.203316 -0.932450
-0.52401036 1.13243341 -0.74332142 -0.581952 -0.015134 -0.813082
-0.54684937 1.15746045 -0.74332142 -0.629885 -0.009691 -0.776628
-0.30239391 1.15765786 -0.74332142 -0.048644 -0.011385 -0.998751
-0.36688295 1.16416216 -0.74332142 -0.206883 -0.010519 -0.978309
-0.57343554 1.66267550 -0.74332142 -0.654360 -0.073670 -0.752586
-0.58682740 1.61308193 -0.74332142 -0.688615 -0.055834 -0.722974
-0.32434124 1.61207700 -0.74332142 -0.100246 -0.009701 -0.994915
-0.29528561 1.72218907 -0.74332142 -0.029665 -0.017390 -0.999409
-0.36600494 1.09020793 -0.74320948 -0.199678 -0.017516 -0.979705
-0.46569669 1.07375205 -0.74219918 -0.379982 0.024640 -0.924666
-0.42254442 1.00564420 -0.73854983 -0.117542 0.112793 -0.986642
-0.55697334 1.44400859 -0.74332142 -0.645634 -0.023809 -0.763276
-0.40261781 1.56226468 -0.74332142 -0.296049 -0.016103 -0.955037
-0.54010302 1.56851935 -0.74332142 -0.609135 -0.040797 -0.792016
-0.52696115 1.42515481 -0.74332142 -0.589472 -0.017946 -0.807590
-0.37314388 1.57605886 -0.74332142 -0.221040 -0.013002 -0.975178
-0.51169795 1.28575516 -0.74332142 -0.561268 -0.001359 -0.827633
-0.56006414 1.25396442 -0.74332142 -0.657235 -0.001378 -0.753685
-0.28455636 1.37358248 -0.74332142 -0.006883 -0.000983 -0.999976
-0.38618115 1.33581245 -0.74332142 -0.257439 -0.001197 -0.966294
-0.44761699 1.26880980 -0.74332142 -0.413217 -0.001295 -0.910632
-0.38022411 1.25384068 -0.74332142 -0.242814 -0.001184 -0.970072
-0.55963910 1.84305859 -0.74828410 -0.240327 -0.240327 -0.940471
-0.53572398 1.83967459 -0.74803007 -0.224754 -0.219306 -0.949416
-0.30136207 1.81503475 -0.74598563 -0.038227 -0.019630 -0.999076
-0.21231529 -0.37538996 -0.74332154 -0.000979 0.000979 -0.999999
-0.09772913 -1.15769577 -0.74332154 0.000978 -0.000978 -0.999999
-0.22070384 -0.84226632 -0.74332154 -0.000978 -0.000978 -0.999999
-0.20781194 -0.80942589 -0.74332154 -0.000978 -0.000978 -0.999999
-0.22263449 -0.75790936 -0.74332154 -0.000978 -0.000978 -0.999999
-0.24979804 -0.33347234 -0.74332154 -0.002938 0.000979 -0.999995
-0.26384902 -0.88487917 -0.74332154 -0.000978 -0.000978 -0.999999
-0.12631442 -0.75150436 -0.74332154 -0.000978 -0.000978 -0.999999
-0.24750037 -0.94774359 -0.74332154 0.000978 -0.000978 -0.999999
-0.16996399 -0.77957410 -0.74332154 -0.000978 -0.000978 -0.999999
-0.26256171 -0.89335555 -0.74332154 -0.000978 -0.000978 -0.999999
-0.23914158 -1.16222000 -0.74332154 0.000978 -0.000978 -0.999999
-0.20323117 -0.71798962 -0.74332154 -0.000978 -0.000978 -0.999999
-0.21182358 -0.48961017 -0.74332154 -0.000978 0.000978 -0.999999
-0.19074638 -1.00033748 -0.74332154 0.000978 -0.000978 -0.999999
-0.22265331 -0.13693638 -0.74332154 -0.002938 0.000979 -0.999995
-0.14712538 -0.34200659 -0.74332154 -0.000978 0.000978 -0.999999
-0.17381829 -0.38043359 -0.74332154 -0.000978 0.000978 -0.999999
-0.08264457 -0.73297286 -0.74332154 -0.000978 -0.000978 -0.999999
-0.07391895 -0.08364239 -0.74332154 -0.000978 0.000978 -0.999999
-0.10521081 -0.62210625 -0.74332154 -0.000978 0.000978 -0.999999
-0.18374263 -0.09482656 -0.74332154 -0.000979 0.000979 -0.999999
-0.14576693 -0.31846479 -0.74332154 -0.000978 0.000978 -0.999999
-0.10309070 -0.54936844 -0.74332154 -0.000978 0.000978 -0.999999
-0.08860777 -0.58516401 -0.74332154 -0.000978 0.000978 -0.999999
-0.01050300 -0.32035264 -0.74332154 0.000978 0.000978 -0.999999
-0.11649866 -0.14757739 -0.74332154 -0.000978 0.000978 -0.999999
-0.13540451 -0.15491010 -0.74332154 -0.000978 0.000978 -0.999999
-0.07202632 -0.90132660 -0.74332154 0.000978 -0.000978 -0.999999
-0.01279981 -0.15367793 -0.74332154 0.000978 0.000978 -0.999999
-0.16673028 1.85822499 -0.74474990 0.002967 -0.010880 -0.999936
-0.22990713 2.00875020 -0.74455953 0.004926 -0.004926 -0.999976
-0.27025816 2.13700199 -0.74424446 0.004907 -0.000981 -0.999987
-0.26772523 1.86243546 -0.74586976 0.004965 -0.010923 -0.999928
-0.24106155 1.94077516 -0.74509549 0.004945 -0.006924 -0.999964
-0.13084167 1.80991137 -0.74463391 0.002973 -0.010901 -0.999936
-0.22816056 1.81761515 -0.74569106 0.004965 -0.012908 -0.999904
-0.18088327 2.15769482 -0.74332142 0.002944 0.000981 -0.999995
-0.04490723 1.97497427 -0.74332142 0.000983 -0.004916 -0.999987
-0.16782370 2.22721744 -0.74332142 0.002950 0.002950 -0.999991
-0.09551253 1.97420895 -0.74332142 0.002950 -0.004916 -0.999984
-0.04464406 2.27244997 -0.74332142 0.000981 0.002944 -0.999995
-0.07241015 2.25630307 -0.74332142 0.002944 0.002944 -0.999991
-0.21912393 2.26881266 -0.74332142 0.004926 0.004926 -0.999976
-0.16955969 2.25470304 -0.74332142 0.002950 0.002950 -0.999991
-0.24268140 0.80213612 -0.74026442 -0.004975 -0.014924 -0.999876
-0.22901693 0.37633064 -0.74176097 -0.002961 -0.006910 -0.999972
-0.20674236 0.06088890 -0.74286973 -0.002938 -0.000979 -0.999995
-0.05604874 -0.00268883 -0.74309325 0.000978 -0.000978 -0.999999
-0.25791898 -0.00834495 -0.74311316 -0.002938 -0.000979 -0.999995
-0.11393763 0.12458570 -0.74264586 -0.000979 -0.002938 -0.999995
-0.14584650 0.38997358 -0.74171305 -0.000985 -0.006896 -0.999976
-0.25396165 0.13533776 -0.74260807 -0.002944 -0.002944 -0.999991
-0.04357306 0.02037312 -0.74301219 0.000978 -0.000978 -0.999999
-0.04875814 0.07895350 -0.74280632 0.000978 -0.000978 -0.999999
-0.09452926 0.24679349 -0.74221635 -0.000981 -0.004907 -0.999987
-0.20539676 0.42462149 -0.74159133 -0.002961 -0.008884 -0.999956
-0.10007328 0.18282284 -0.74244118 -0.000981 -0.002944 -0.999995
-0.18107720 0.01690454 -0.74302435 -0.000979 -0.000979 -0.999999
-0.08843459 -0.00876938 -0.74311459 -0.000978 -0.000978 -0.999999
-0.06460467 0.20215176 -0.74248922 -0.000981 -0.002944 -0.999995
-0.13575047 0.75290751 -0.74152482 -0.000991 -0.012883 -0.999917
-0.02151329 0.54253072 -0.74307334 0.000985 -0.008867 -0.999960
-0.03764161 0.49350062 -0.74285471 0.000983 -0.006883 -0.999976
-0.07460402 0.75524902 -0.74235368 -0.000989 -0.012857 -0.999917
-0.14223254 0.95374793 -0.74143696 -0.002985 -0.016913 -0.999852
-0.11884794 0.81515026 -0.74175394 -0.000991 -0.012883 -0.999917
-0.03270999 0.14329797 -0.74292159 0.000979 -0.002938 -0.999995
-0.02429001 1.00694525 -0.74303567 0.000991 -0.014865 -0.999889
-0.16701488 0.80715245 -0.74110091 -0.002979 -0.014894 -0.999885
-0.05160439 0.17636143 -0.74266541 -0.000979 -0.002938 -0.999995
-0.23914143 0.88898194 -0.74012327 -0.004984 -0.016947 -0.999844
-0.02743098 0.90924174 -0.74299312 0.000989 -0.012857 -0.999917
-0.05833538 0.46293208 -0.74257421 -0.000983 -0.006883 -0.999976
-0.08947232 0.80184060 -0.74215209 -0.000989 -0.012857 -0.999917
-0.55019510 -1.43516898 -0.74332154 -0.585857 -0.049410 -0.808907
-0.41765669 -1.33430207 -0.74332154 -0.334192 -0.003755 -0.942497
-0.54855430 -1.39839458 -0.74332154 -0.549237 -0.081316 -0.831701
-0.50843954 -1.23569763 -0.74332154 -0.328768 -0.177675 -0.927547
-0.58308661 -1.23855448 -0.74332154 -0.411428 -0.243865 -0.878212
-0.44011283 -1.26147258 -0.74332154 -0.278235 -0.089294 -0.956353
-0.40696475 -1.41991079 -0.74332154 -0.311788 -0.001232 -0.950151
-0.44897196 -1.41052449 -0.74332154 -0.416342 -0.001297 -0.909207
-0.38640878 -1.47512901 -0.74332154 -0.257439 -0.001197 -0.966294
-0.57034934 -1.53462803 -0.74332154 -0.676037 -0.001382 -0.736866
-0.35046697 -1.51168835 -0.74332154 -0.165678 -0.001127 -0.986179
-0.47463089 -1.92164731 -0.72701037 -0.423264 -0.742771 -0.518787
-0.51865989 -1.91973317 -0.69979179 -0.569694 -0.779995 -0.258952
-0.30905449 -1.91938388 -0.69482398 -0.070018 -0.974108 -0.214967
-0.47225159 -1.82768869 -0.43521771 -0.459475 -0.718240 0.522507
-0.56505281 -1.81034732 -0.41362318 -0.649443 -0.585674 0.484985
-0.38239872 -1.86323142 -0.49421221 -0.240454 -0.860492 0.449150
-0.49835324 -1.83897996 -0.45108205 -0.516492 -0.715782 0.469991
-0.35777360 -1.63044882 -0.29154480 -0.177942 -0.212212 0.960886
-0.52416867 -1.62053168 -0.28823566 -0.558742 -0.153468 0.815018
-0.49825665 -1.89404440 -0.56790793 -0.518534 -0.809916 0.274150
-0.30243522 -1.87435389 -0.51532471 -0.046813 -0.908174 0.415968
-0.31285241 -1.70990896 -0.32604915 -0.071608 -0.504061 0.860694
-0.58806700 -1.68071425 -0.30909646 -0.682319 -0.308092 0.662963
-0.37708297 -1.91426528 -0.64948237 -0.228426 -0.959919 0.162407
-0.29806405 -1.91251457 -0.64134574 -0.036325 -0.983127 0.179283
-0.53279030 -1.91383886 -0.64750040 -0.591338 -0.793912 0.141504
-0.58841735 -1.73884797 -0.34355500 -0.686184 -0.430319 0.586496
-0.37543166 -1.73860180 -0.34334037 -0.221401 -0.574403 0.788063
-0.36345285 -1.57374716 -0.74332154 -0.188804 -0.061331 -0.980098
-0.56597960 -1.63659024 -0.74332154 -0.658615 -0.162753 -0.734668
-0.48004436 -1.60893047 -0.74332154 -0.478585 -0.122161 -0.869502
-0.54272264 -1.56364822 -0.74332154 -0.622889 -0.043786 -0.781084
-0.53097576 -1.75447404 -0.74332154 -0.549082 -0.373115 -0.747860
-0.52955353 -1.79416621 -0.74332154 -0.526955 -0.437752 -0.728486
-0.44761699 -1.82913697 -0.74332154 -0.343823 -0.537526 -0.769969
-0.41701379 -1.90472078 -0.74332154 -0.268922 -0.679465 -0.682648
-0.40507910 -1.70046425 -0.74332154 -0.260158 -0.288904 -0.921332
-0.36862889 -1.64995873 -0.74332154 -0.178800 -0.194461 -0.964477
-0.48495138 -1.84265232 -0.74332154 -0.416514 -0.538340 -0.732603
-0.30104184 -1.66760123 -0.74332154 -0.038291 -0.260624 -0.964681
-0.55786729 -1.59914720 -0.28618762 -0.664772 -0.261784 0.699677
-0.42658821 -1.57810366 -0.28600335 -0.408303 -0.516527 0.752654
-0.51134622 -1.43717694 -0.11042056 0.052689 -0.642232 0.764697
-0.48822153 -1.41170073 -0.09032515 0.072087 -0.846664 0.527222
-0.48330683 -1.39766717 -0.05674485 0.103979 -0.973392 0.204199
-0.38042486 -1.39766717 -0.04481173 0.052439 -0.994111 0.094837
-0.45205545 -1.39766717 0.08392593 0.090745 -0.991300 -0.095339
-0.42337853 -1.39766717 0.07185712 0.075250 -0.993971 -0.079742
-0.37147564 -1.39766717 0.10243714 0.051009 -0.991850 -0.116755
-0.45733514 -1.39766717 0.10468270 0.092647 -0.988629 -0.118448
-0.41760281 -1.51625967 -0.21694496 0.001304 -0.903365 0.428870
-0.45038927 -1.52388132 -0.23814066 0.001262 -0.935026 0.354578
-0.53866208 -1.50333595 -0.18100443 0.006739 -0.853162 0.521602
-0.54281574 -1.51255536 -0.20664340 0.003948 -0.893629 0.448789
-0.23099914 -1.52995789 -0.25568223 0.001258 -0.937307 0.348502
-0.24197558 -1.53344297 -0.26837558 0.001356 -0.828486 0.560008
-0.44921982 -1.41905344 0.19972202 0.121163 -0.882355 -0.454719
-0.44556922 -1.41230571 0.18772161 0.111068 -0.922827 -0.368856
-0.28865266 -1.41979527 0.22214702 0.034009 -0.871978 -0.488362
-0.38672614 -1.41777682 0.20254713 0.084784 -0.890929 -0.446159
-0.35655209 -1.45893550 0.27850923 0.091071 -0.573889 -0.813853
-0.49717999 -1.45045757 0.25567171 0.165749 -0.637144 -0.752712
-0.35779512 -1.52635539 0.30039781 0.102600 -0.009720 -0.994675
-0.31903654 -1.51619804 0.30260286 0.083180 -0.090017 -0.992461
-0.06290756 -1.55450726 0.30565891 0.014401 0.129610 -0.991461
-0.27128676 -1.72165501 0.20838639 0.055290 0.422091 -0.904866
-0.22964914 -1.66714787 0.24010712 0.047737 0.328997 -0.943124
-0.24435073 -1.70804024 0.21630952 0.049323 0.398582 -0.915805
-0.36403036 -1.61768830 0.26009992 0.102361 0.223678 -0.969273
-0.33712119 -1.65153766 0.24551126 0.086965 0.286855 -0.954019
-0.43514088 -1.63578677 0.24010217 0.137483 0.244851 -0.959764
-0.49328029 -1.60367978 0.24928683 0.168211 0.178483 -0.969458
-0.28250587 -1.56579399 0.29906124 0.064404 0.146372 -0.987131
0.67880499 -1.23953128 0.58598685 0.297035 -0.640633 0.708068
0.65348196 -1.25212479 0.58519638 0.297647 -0.638734 0.709525
0.64050126 -1.30999196 0.53626072 0.300504 -0.634754 0.711888
0.59727228 -1.35489774 0.51232743 0.272546 -0.635942 0.722009
0.56821126 -1.31022012 0.56509960 0.250829 -0.638904 0.727246
0.56464618 -1.38749099 0.49361375 0.247869 -0.639407 0.727819
0.51767248 -1.34695506 0.54753947 0.209348 -0.646653 0.733494
0.53199571 -1.42530203 0.46917322 0.216684 -0.646933 0.731113
0.46613762 -1.34561872 0.56287742 0.166044 -0.656558 0.735772
0.45268404 -1.44096231 0.47561011 0.143108 -0.664323 0.733618
0.41618389 -1.37097418 0.54915166 0.123764 -0.666536 0.735128
0.43253857 -1.44693029 0.47385636 0.126977 -0.667748 0.733477
0.38691130 -1.36567616 0.55926228 0.104789 -0.671536 0.733524
0.35945496 -1.46080494 0.47165707 0.083113 -0.680944 0.727604
0.31981757 -1.41804695 0.51716459 0.067913 -0.683467 0.726816
0.27016714 -1.41257811 0.52680957 0.055834 -0.688615 0.722974
0.26333994 -1.37478685 0.56376684 0.055834 -0.688615 0.722974
0.23096302 -1.36947238 0.57113159 0.050024 -0.690325 0.721768
0.20418793 -1.40637553 0.53732264 0.044144 -0.693485 0.719117
0.11168000 -1.31192172 0.63376057 0.038227 -0.695172 0.717826
0.17395107 -1.35280383 0.59083259 0.044054 -0.692067 0.720488
0.10963769 -1.43166864 0.51811004 0.035331 -0.699564 0.713696
0.07268195 -1.35356963 0.59547246 0.026751 -0.696929 0.716641
0.07241770 -1.35664475 0.59251201 0.026751 -0.696929 0.716641
0.00507810 -1.52749729 0.43047664 0.004151 -0.704328 0.709863
0.05950900 -1.45607889 0.49699077 0.020998 -0.701329 0.712528
0.00013200 -1.76924312 0.19343251 0.001383 -0.678911 0.734219
0.06119821 -1.73129737 0.22705710 0.009739 -0.685896 0.727634
0.15458716 -1.75856078 0.19977772 0.015359 -0.679996 0.733055
0.18834174 -1.74194217 0.21441600 0.018154 -0.682852 0.730331
0.23707625 -1.72707021 0.22686988 0.020988 -0.684209 0.728984
0.26357469 -1.72516274 0.22814187 0.023830 -0.682674 0.730335
0.29901952 -1.70936430 0.24147394 0.029554 -0.685373 0.727593
0.46440586 -1.64921224 0.28624335 0.117436 -0.673401 0.729890
0.50220823 -1.73895741 0.19237706 0.149785 -0.685380 0.712614
0.56499523 -1.72781301 0.18566474 0.227414 -0.679105 0.697925
0.63406515 -1.65000689 0.23361707 0.319477 -0.650307 0.689228
0.64177102 -1.64993167 0.22958317 0.329596 -0.647827 0.686794
0.71279067 -1.53045046 0.30221203 0.380081 -0.620305 0.686120
0.57846010 -1.46874201 0.41230562 0.254364 -0.639860 0.725175
0.55619591 -1.49918723 0.39459923 0.233989 -0.645433 0.727094
0.53772587 -1.55674851 0.35169214 0.209453 -0.653183 0.727655
0.41348851 -1.58979702 0.34580576 0.092156 -0.677275 0.729936
0.39625236 -1.63506913 0.30655912 0.073798 -0.678651 0.730744
0.30976835 -1.64621711 0.30039084 0.038292 -0.684995 0.727541
0.22698516 -1.55418622 0.39322329 0.035399 -0.695245 0.717901
0.19139978 -1.57023144 0.37895802 0.032443 -0.698221 0.715147
0.14637646 -1.54041982 0.41098037 0.032509 -0.702480 0.710961
0.14326558 -1.65008426 0.30046147 0.021037 -0.694216 0.719460
0.09237896 -1.60374200 0.34909347 0.023843 -0.699858 0.713884
0.04100605 -1.63300729 0.32112759 0.009723 -0.698690 0.715358
0.66910821 -1.16356695 0.66112089 0.276127 -0.636848 0.719846
0.54848534 -1.22041368 0.65514457 0.233249 -0.634000 0.737319
0.38807103 -1.25801694 0.66003776 0.117341 -0.660972 0.741180
0.13971959 -1.28160143 0.66156650 0.044054 -0.692067 0.720488
-0.00100266 -1.26695168 0.68333697 0.001381 -0.697373 0.716707
-0.68086445 -1.30044901 0.52907956 -0.311354 -0.637227 0.704983
-0.71920151 -1.34146070 0.47209904 -0.325803 -0.637018 0.698613
-0.62203777 -1.31995964 0.53691781 -0.286171 -0.634692 0.717825
-0.64176327 -1.26989233 0.57663679 -0.290430 -0.637021 0.714041
-0.58584583 -1.39138484 0.48431996 -0.261384 -0.638411 0.723954
-0.58210266 -1.34634137 0.52820897 -0.257836 -0.637471 0.726052
-0.50360596 -1.36571610 0.53613889 -0.189007 -0.650001 0.736053
-0.53862923 -1.37974072 0.51216757 -0.220095 -0.644675 0.732088
-0.49707943 -1.48219311 0.42746398 -0.172345 -0.657352 0.733611
-0.43721050 -1.46200156 0.45977530 -0.123788 -0.669649 0.732289
-0.42194206 -1.29589677 0.62080777 -0.133085 -0.662436 0.737203
-0.35501355 -1.45564985 0.47792271 -0.077000 -0.681379 0.727869
-0.38308337 -1.43782008 0.49156865 -0.092156 -0.677275 0.729936
-0.27095580 -1.38478220 0.55404377 -0.055834 -0.688615 0.722974
-0.33166784 -1.35760927 0.57467985 -0.076838 -0.679939 0.729231
-0.21598339 -1.46312392 0.48221269 -0.041219 -0.695044 0.717785
-0.23483729 -1.29876554 0.63939059 -0.055834 -0.688615 0.722974
-0.25904226 -1.42533505 0.51583946 -0.050024 -0.690325 0.721768
-0.12674597 -1.51699793 0.43505016 -0.032509 -0.702480 0.710961
-0.19395086 -1.42979658 0.51575840 -0.041138 -0.696509 0.716368
-0.03221160 -1.40188205 0.55104566 -0.006946 -0.701511 0.712624
-0.06009053 -1.50577796 0.44917545 -0.018163 -0.702786 0.711169
-0.09777456 -1.30706596 0.63952076 -0.035399 -0.695245 0.717901
-0.10304812 -1.31812143 0.62857008 -0.038227 -0.695172 0.717826
-0.09523668 -1.67984283 0.27354792 -0.018159 -0.691458 0.722189
-0.06849091 -1.74074900 0.21831021 -0.009719 -0.684509 0.728940
-0.17144340 -1.69403267 0.25893894 -0.018158 -0.688599 0.724915
-0.11226453 -1.75387299 0.20505661 -0.015359 -0.679996 0.733055
-0.27539855 -1.72867811 0.22479281 -0.023830 -0.682674 0.730335
-0.19910203 -1.65813529 0.29147211 -0.021035 -0.691356 0.722208
-0.30275801 -1.66863120 0.27956283 -0.032432 -0.686718 0.726200
-0.31177261 -1.74002314 0.21277907 -0.029550 -0.682471 0.730315
-0.45490885 -1.70153511 0.23765725 -0.101712 -0.682500 0.723774
-0.50941157 -1.64869666 0.27948207 -0.156252 -0.669003 0.726650
-0.57415593 -1.66015244 0.25076726 -0.230775 -0.664068 0.711165
-0.56876183 -1.68809426 0.22495779 -0.223905 -0.671715 0.706162
-0.61742586 -1.68555117 0.20876384 -0.290170 -0.662101 0.690958
-0.71071720 -1.62814391 0.21423432 -0.398594 -0.633451 0.663221
-0.68234289 -1.55790424 0.29953113 -0.362713 -0.625311 0.690960
-0.59285456 -1.52263999 0.36492687 -0.265546 -0.640808 0.720313
-0.57909006 -1.60985363 0.29799753 -0.237552 -0.649729 0.722095
-0.50088882 -1.49742353 0.41230810 -0.172731 -0.658825 0.732198
-0.44927159 -1.60384119 0.32997000 -0.111102 -0.674019 0.730311
-0.44093737 -1.53928530 0.38783914 -0.117182 -0.671942 0.731275
-0.28455660 -1.55018735 0.39421168 -0.044054 -0.692067 0.720488
-0.20910215 -1.58787417 0.36116394 -0.029622 -0.695422 0.717991
-0.23619214 -1.55262661 0.39455393 -0.038227 -0.695172 0.717826
-0.13098203 -1.62242687 0.32910696 -0.023842 -0.697020 0.716655
-0.16950685 -1.57324910 0.37739754 -0.029624 -0.698282 0.715210
-0.05742142 -1.58125448 0.37415573 -0.012551 -0.701451 0.712607
-0.69878775 -1.15254772 0.66270888 -0.279143 -0.639636 0.716201
-0.59488934 -1.17742586 0.67748153 -0.251004 -0.623563 0.740382
-0.44115609 -1.23457658 0.67173553 -0.152343 -0.644064 0.749649
-0.38083282 -1.26552331 0.65567827 -0.107899 -0.666609 0.737557
-0.19561867 -1.27992058 0.66004300 -0.047074 -0.688997 0.723233
-0.08649472 -1.27660859 0.66971147 -0.032441 -0.695361 0.717928
0.43220797 -2.01511288 -0.40846804 -0.757628 0.585367 -0.288696
0.77821279 -1.97314203 -0.36227155 0.911412 0.364851 -0.190295
0.58638167 -1.96248794 -0.33929890 -0.178576 0.889978 -0.419582
0.74963516 -1.96132922 -0.33680829 0.852777 0.468043 -0.231749
0.71556902 -1.95313597 -0.31919789 0.735657 0.607438 -0.299712
0.66710889 -2.00037169 -0.42072642 0.477722 0.782169 -0.399991
0.66414261 -1.98784387 -0.39380431 0.446568 0.798019 -0.404652
0.79450923 -1.94761944 -0.30735707 0.955449 0.279485 -0.094895
0.48434529 -2.14019537 -0.43564293 -0.257842 -0.548500 -0.795403
0.44127929 -2.11503577 -0.43576175 -0.497538 -0.207182 -0.842337
0.63224709 -2.17756820 -0.43533292 0.474747 -0.832753 -0.284848
0.86060292 2.13587046 -0.42444316 0.803009 0.240747 0.545176
0.87690729 2.29507637 -0.49794570 0.646462 0.704211 0.293555
0.75082701 2.26163292 -0.43757638 0.092191 0.411419 0.906772
0.02037064 2.32891464 -0.67103577 0.017675 0.518010 0.855192
0.48941839 2.09629321 1.07077348 0.001300 0.903843 0.427862
0.48828650 2.28045869 -0.66704428 0.001020 0.043880 0.999036
0.34518439 2.28539896 -0.66704428 0.001032 0.058843 0.998267
0.90208167 2.14049697 -0.46344435 0.908473 0.124583 0.398944
0.85868049 2.08463931 0.12103701 0.992495 -0.082992 0.089813
0.86060292 0.90120316 -0.51284981 0.995608 -0.082146 0.044906
0.86060292 1.01377058 -0.46174693 0.968845 -0.198902 0.147572
0.86060292 0.90004373 -0.05028362 0.999999 -0.000978 0.000978
0.76435858 0.98105782 0.88330030 0.966882 -0.003594 0.255199
0.76235223 1.01996732 0.89344823 0.965534 -0.001199 0.260274
0.76033419 0.88207799 0.90360379 0.963605 -0.008463 0.267198
0.78549248 1.01577258 0.77639186 0.980927 -0.003450 0.194345
0.68710983 0.93097579 1.08528101 0.573736 -0.001363 0.819039
0.69722599 0.88829380 1.07314706 0.782341 -0.001375 0.622848
0.69743097 1.21970391 1.07290113 0.785794 -0.001371 0.618487
0.70034963 1.57341659 1.06940055 0.831841 -0.001357 0.555013
0.68178272 1.41697669 1.09167075 0.447738 -0.001313 0.894164
0.69323748 1.40494335 1.07793128 0.707106 -0.001384 0.707106
0.86060292 1.23335636 -0.02110702 0.999999 -0.000978 0.000978
0.86060292 1.76091361 -0.05226994 0.999999 -0.000978 0.000978
0.86060292 1.66380811 -0.06010762 0.999999 -0.000978 0.000978
0.86060292 1.63030469 -0.08072079 0.999999 -0.000978 0.000978
0.86060292 1.16992736 0.05294043 0.930303 -0.001269 0.366791
0.86060292 1.05588305 0.07247508 0.883845 -0.003975 0.467762
0.79233414 1.22514033 0.74050307 0.997710 -0.001040 0.067624
0.79868072 1.25373805 0.70405197 0.940919 -0.001250 -0.338631
0.78354490 1.33401728 0.78625715 0.979315 -0.001156 0.202338
0.76259536 1.24617767 0.89221859 0.965696 -0.001197 0.259673
0.78891009 1.18560684 0.75912035 0.982047 -0.001143 0.188635
0.77089214 1.21455216 0.85025394 0.971447 -0.001180 0.237255
0.77756959 1.66820860 0.81647980 0.975327 0.001168 0.220763
0.75135559 1.57126725 0.94906867 0.957321 -0.001220 0.289025
0.77746797 1.54800677 0.81699383 0.975828 -0.001169 0.218539
0.75347817 1.53758621 0.93833303 0.958392 -0.001215 0.285453
0.76816392 1.45089602 0.86405313 0.969369 -0.001186 0.245605
0.75960875 1.37834001 0.90732479 0.963362 -0.001203 0.268202
0.78177822 1.47287953 0.79519308 0.978290 -0.001158 0.207235
0.75539321 1.15506637 0.92864656 0.960094 -0.001211 0.279674
0.77240396 1.04854286 0.84260738 0.972780 -0.001176 0.231726
0.86060292 0.96024305 -0.58299768 0.966733 -0.241367 0.084668
0.86060292 0.86425269 -0.65743947 0.999339 -0.035654 0.007131
0.86060292 0.96801245 -0.62943590 0.956952 -0.278736 0.080923
0.86072206 1.02960873 -0.52880931 0.940777 -0.299028 0.159755
0.86146396 1.15021646 -0.38177320 0.925565 -0.234590 0.297148
0.86444497 1.05841243 -0.49119523 0.812936 -0.483325 0.324857
0.86060292 1.94039845 -0.40589470 0.974012 0.085614 0.209692
0.86060292 1.71672487 -0.33681107 0.994050 0.063735 0.088335
0.86060292 1.75516927 -0.31927449 0.999999 -0.000978 0.000978
0.90187246 2.01946068 -0.54481953 0.993783 0.014213 -0.110420
0.91562802 1.79549575 -0.48734462 0.959898 -0.003641 0.280324
0.75786257 1.86792016 0.91431570 0.963188 -0.001205 0.268825
0.75679559 1.74822438 0.91999829 0.961751 -0.001207 0.273924
0.75545877 1.94325960 0.92711735 0.962379 -0.003623 0.271688
0.76904261 1.78731430 0.85670626 0.970072 -0.001184 0.242814
0.76240331 1.73861074 0.89194191 0.965696 -0.001197 0.259673
0.76609218 1.76873732 0.87226033 0.968509 -0.001191 0.248977
0.84202260 1.59174967 0.11001742 0.931838 -0.001264 0.362873
0.84120405 0.86690605 0.12455414 0.981965 -0.001146 0.189060
0.84287143 1.27936840 0.09494218 0.854638 -0.001342 0.519223
0.90189666 1.56883407 -0.37512323 0.879697 0.202552 0.430239
0.90537238 1.05531240 -0.61440587 0.875654 -0.450294 0.174544
0.89984214 1.39509511 -0.33563253 0.874124 -0.025670 0.485024
0.90357620 1.09493840 -0.52796185 0.874256 -0.409194 0.261220
0.90002692 1.49861777 -0.34514368 0.874314 0.112677 0.472101
0.90473336 1.64130354 -0.42851934 0.888679 0.276312 0.365926
0.87978995 1.74176598 -0.44671276 0.840197 0.111351 0.530727
0.91653371 1.70830941 -0.48100814 0.935661 -0.014003 0.352623
0.86392391 -1.85068393 -0.43598557 0.882737 -0.318389 0.345550
0.75400347 -0.32894656 0.93573618 0.959055 0.001216 0.283219
0.77201211 -0.37790021 0.84500980 0.972520 -0.003545 0.232790
0.76357603 -0.46356273 0.88751042 0.980004 -0.116814 0.161080
0.76710844 -0.51670080 0.86971414 0.991085 -0.113430 0.069892
0.78911597 -0.65009999 0.75884140 0.918629 -0.212870 -0.332878
0.77963877 -0.69021082 0.80658710 0.953101 -0.092572 -0.288147
0.78934753 -0.57814258 0.75767481 0.930297 -0.270452 -0.247796
0.79033458 -0.66327107 0.75270200 0.908086 -0.212901 -0.360628
0.76785052 -0.66830719 0.86597562 0.992979 0.001085 -0.118289
0.75654745 -0.58686239 0.92291951 0.985809 0.001127 0.167869
0.78293347 -0.87850636 0.78998828 0.871255 -0.001330 -0.490829
0.70296443 -0.51625890 1.06802940 0.858906 0.004032 0.512118
0.69042015 -0.56632894 1.08469200 0.598004 0.006874 0.801463
0.86060292 -0.45321578 -0.70846057 0.973132 -0.145527 0.178429
0.86060292 -0.32665822 -0.62958288 0.999999 -0.000978 0.000978
0.86060292 -0.51357383 -0.66366673 0.773381 -0.617807 0.142111
0.86060292 -0.38970888 -0.48454988 0.993384 -0.113310 0.018702
0.86060292 -0.41897777 -0.08036008 0.920595 -0.390517 0.001280
0.86060292 -0.68744230 -0.74960864 0.949790 -0.131878 0.283738
0.86060292 -0.79739171 -0.77128541 0.990130 0.089379 0.107951
0.86060292 -1.07983422 -0.75795269 0.851398 0.485012 0.199711
0.86060292 -1.11538315 -0.75132740 0.777849 0.581438 0.238499
0.86060292 -0.51740986 -0.75879598 0.988736 -0.094778 0.115840
0.85998660 -0.07016389 0.00375414 0.995910 -0.001063 0.090344
0.85996222 0.63782632 0.00426523 0.995698 -0.001065 0.092648
0.85881656 -0.25489730 0.02828486 0.975213 -0.001171 0.221267
0.85814863 0.19656049 0.04228848 0.955540 -0.001223 0.294859
0.85865027 -0.07954788 0.03177041 0.970765 -0.001182 0.240031
0.85708654 0.39947745 0.06455398 0.912475 -0.001291 0.409130
0.85809314 0.41058138 0.04345088 0.953712 -0.001227 0.300720
0.85720903 0.70559150 0.06198575 0.917945 -0.001284 0.396706
0.85711479 0.52234483 0.06396249 0.913864 -0.001289 0.406019
0.85853237 0.45009425 0.03424239 0.967197 -0.001193 0.254023
0.86060292 -0.11037681 -0.59450376 0.999999 -0.000978 0.000978
0.86060292 0.45905313 -0.58310640 0.999999 -0.000978 0.000978
0.86060292 0.02550544 -0.56790817 0.999999 -0.000978 0.000978
0.86060292 -0.25177681 -0.52876282 0.999999 -0.000978 0.000978
0.86060292 -0.27816871 -0.52304810 0.999999 -0.000978 0.000978
0.86060292 0.41245919 -0.56270587 0.999999 -0.000978 0.000978
0.86060292 0.73090470 -0.55311728 0.999999 -0.000978 0.000978
0.86060292 0.36317819 -0.54648703 0.999999 -0.000978 0.000978
0.86060292 0.16740154 -0.54330611 0.999999 -0.000978 0.000978
0.86060292 0.66448534 -0.52623332 0.999999 -0.000978 0.000978
0.78667265 -0.16283946 0.68356609 0.932691 -0.001266 -0.360674
0.78684038 -0.26445431 0.68188655 0.939829 -0.001251 -0.341642
0.78747267 -0.08759461 0.67555404 0.963981 -0.001203 -0.265967
0.78772783 0.29455614 0.67299855 0.971989 -0.001181 -0.235025
0.78691435 0.63229519 0.68114531 0.942782 -0.001249 -0.333408
0.79018682 0.81585062 0.64837408 0.997710 -0.001040 0.067624
0.86060292 0.45971271 -0.03202710 0.999987 -0.000981 0.004907
0.86060292 0.36052486 -0.03187160 0.999987 -0.000981 0.004907
0.86060292 -0.02022029 -0.00990742 0.999736 -0.000999 0.022971
0.86060292 -0.09625258 -0.01144136 0.999780 -0.000999 0.020974
0.86060292 -0.24159871 -0.48995614 0.999999 -0.000978 0.000978
0.86060292 -0.27592331 -0.45792037 0.999999 -0.000978 0.000978
0.86060292 0.49204877 -0.51750118 0.999999 -0.000978 0.000978
0.86060292 -0.00242312 -0.49965250 0.999999 -0.000978 0.000978
0.86060292 0.43312144 -0.47646767 0.999999 -0.000978 0.000978
0.86060292 0.67424464 -0.45431584 0.999999 -0.000978 0.000978
0.86060292 0.43408459 -0.45983052 0.999999 -0.000978 0.000978
0.86060292 0.30428782 -0.44779351 0.999999 -0.000978 0.000978
0.86060292 0.03700303 -0.45455906 0.999999 -0.000978 0.000978
0.86060292 -0.15773679 -0.72801852 0.999999 -0.000978 0.000978
0.86060292 -0.22482799 -0.73307216 0.999999 -0.000978 0.000978
0.86060292 0.42725578 -0.73560441 0.999999 -0.000978 0.000978
0.86060292 0.19699155 -0.70376992 0.999999 -0.000978 0.000978
0.86060292 0.32731256 -0.67974663 0.999999 -0.000978 0.000978
0.86060292 0.73105592 -0.69855690 0.999999 -0.000978 0.000978
0.86060292 0.75271368 -0.69185650 0.999999 -0.000978 0.000978
0.84284735 0.70714861 0.09536980 0.886089 -0.001321 0.463513
0.84207702 -0.26002073 0.10904971 0.941713 -0.001251 0.336415
0.84239686 -0.01273314 0.10337040 0.920203 -0.001283 0.391439
0.84098566 0.54279155 0.12843199 0.989410 -0.001108 0.145143
0.84091026 0.25458458 0.12977077 0.991141 -0.001098 0.132811
0.84116006 0.07295457 0.12533502 0.984392 -0.001135 0.175987
0.78657901 0.02045323 0.76904285 0.981537 -0.001145 0.191268
0.76795912 -0.19409628 0.86419809 0.969932 -0.001187 0.243373
0.77902901 0.08199154 0.80762649 0.977134 -0.001162 0.212622
0.78087419 0.24000199 0.79819715 0.978290 -0.001158 0.207235
0.76085532 -0.23946582 0.90050125 0.964763 -0.001201 0.263117
0.78226215 0.59844333 0.79110420 0.979315 -0.001156 0.202338
0.77435702 0.13717054 0.83150220 0.974073 -0.001172 0.226229
0.76625031 -0.06140050 0.87293088 0.968656 -0.001189 0.248404
0.78184080 0.45398456 0.79325724 0.978855 -0.001156 0.204554
0.78360409 0.13918500 0.78424585 0.979955 -0.001152 0.199215
0.78850794 0.24186404 0.75918543 0.982547 -0.001141 0.186011
0.77681035 0.13219510 0.81896496 0.975828 -0.001169 0.218539
0.76534778 0.47362590 0.87754333 0.967932 -0.001191 0.251210
0.76748401 0.62745374 0.86662626 0.969369 -0.001186 0.245605
0.75145477 0.41792247 0.94854212 0.957321 -0.001220 0.289025
0.77104396 0.62466419 0.84843338 0.971989 -0.001181 0.235025
0.75202882 0.68646336 0.94560862 0.957524 -0.001217 0.288352
0.76748031 0.32683334 0.86664510 0.969369 -0.001186 0.245605
0.77497846 0.77378541 0.82832646 0.974705 -0.001170 0.223492
0.77494311 0.81620997 0.82850707 0.974588 -0.001173 0.224003
0.75270027 -0.03372040 0.94217730 0.958193 -0.001218 0.286119
0.76799262 0.29321057 0.86402690 0.969932 -0.001187 0.243373
0.75704288 0.30581513 0.91998470 0.961569 -0.001210 0.274561
0.75945574 0.02112760 0.90765393 0.963362 -0.001203 0.268202
0.74227899 0.34102488 0.97162378 0.942782 -0.001249 0.333408
0.73373204 -0.14788125 0.99191952 0.927860 -0.001273 0.372926
0.74106133 -0.19091536 0.97451532 0.940919 -0.001250 0.338631
0.74597353 0.23998134 0.96285069 0.948930 -0.001237 0.315485
0.73678684 0.12216014 0.98466563 0.933019 -0.001263 0.359825
0.72038281 -0.02764047 1.02361858 0.899331 -0.001305 0.437266
0.72141540 -0.20819734 1.02116668 0.901868 -0.001305 0.432009
0.70816743 0.19625133 1.05262530 0.870612 -0.001333 0.491969
0.71533138 0.58321744 1.03561378 0.888291 -0.001316 0.459279
0.70596176 0.08643506 1.05786288 0.865181 -0.001337 0.501457
0.73996806 0.82045352 0.97711146 0.938727 -0.001253 0.344659
0.71619439 0.73749548 1.03356445 0.889912 -0.001314 0.456129
0.74263525 0.80611098 0.97077775 0.943838 -0.001247 0.330406
0.70692968 0.72263962 1.05556452 0.867668 -0.001333 0.497143
0.86060292 -0.11229308 -0.74970710 0.999999 -0.000978 0.000978
0.86060292 0.70610756 -0.78247833 0.999999 -0.000978 0.000978
0.86060292 -0.23787732 -0.76612902 0.999999 -0.000978 0.000978
0.86060292 0.22658196 -0.75161374 0.999999 -0.000978 0.000978
0.86060292 0.65566605 -0.77443624 0.999999 -0.000978 0.000978
0.86060292 0.27507687 -0.73783422 0.999999 -0.000978 0.000978
0.86060292 0.13916460 -0.65639603 0.999999 -0.000978 0.000978
0.86060292 0.13192402 -0.63472879 0.999999 -0.000978 0.000978
0.86060292 0.16668548 -0.66765893 0.999999 -0.000978 0.000978
0.86060292 -0.22942232 -0.65627754 0.999999 -0.000978 0.000978
0.86060292 0.69701314 -0.63107133 0.999999 -0.000978 0.000978
0.86060292 0.79548925 -0.66592979 0.999999 -0.000978 0.000978
0.86060292 -0.01811954 -0.61785376 0.999999 -0.000978 0.000978
0.86060292 0.31462604 -0.64373672 0.999999 -0.000978 0.000978
0.86060292 0.79609269 -0.66147768 0.999999 -0.000978 0.000978
0.86060292 -0.01361648 -0.08442443 0.999999 -0.000978 0.000978
0.86060292 -0.11922906 -0.06677075 0.999999 -0.000978 0.000978
0.86060292 0.05578064 -0.08246739 0.999999 -0.000978 0.000978
0.86060292 0.63880116 -0.05835311 0.999999 -0.000978 0.000978
0.86060292 0.57878226 -0.06588350 0.999999 -0.000978 0.000978
0.86060292 0.58255273 -0.05118145 0.999999 -0.000978 0.000978
0.67715961 0.24155889 1.09281945 0.218539 -0.001169 0.975828
0.43388817 -0.70418626 1.09281945 0.092250 -0.281948 0.954984
0.61372995 1.71770573 1.09281957 0.000978 -0.000978 0.999999
0.61193758 1.85631180 1.09281957 0.000978 -0.000978 0.999999
0.64562178 1.53392148 1.09281957 0.000978 -0.000978 0.999999
0.63550556 1.31883824 1.09281945 0.000978 -0.000978 0.999999
0.62473321 -0.29407293 1.09281945 0.000978 -0.000978 0.999999
0.66997498 0.04635366 1.09281945 0.000978 -0.000978 0.999999
0.62194288 -0.19921325 1.09281945 0.000978 -0.000978 0.999999
0.64536250 -0.23873986 1.09281945 0.000978 -0.000978 0.999999
0.65978676 -0.20805673 1.09281945 0.000978 -0.000978 0.999999
0.64119709 0.48037544 1.09281945 0.000978 -0.000978 0.999999
0.62835884 0.57859701 1.09281945 0.000978 -0.000978 0.999999
0.61093885 -0.13316372 1.09281945 0.000978 -0.000978 0.999999
0.62734592 0.13450652 1.09281945 0.000978 -0.000978 0.999999
0.86060292 0.85320950 -0.72404671 0.999972 -0.006896 0.002956
0.86060292 1.46852767 -0.04925020 0.999999 -0.000978 0.000978
0.86060292 1.23851764 -0.04761537 0.999999 -0.000978 0.000978
0.86060292 1.32651603 -0.06762630 0.999999 -0.000978 0.000978
0.86060292 1.57723486 -0.11851438 0.999999 -0.000978 0.000978
0.86060292 1.19266391 0.01493723 0.989771 -0.001106 0.142660
0.86060292 1.24837244 0.02090566 0.983924 -0.001137 0.178585
0.86060292 1.57099247 -0.01414879 0.999999 -0.000978 0.000978
0.86060292 1.66617370 -0.03008490 0.999999 -0.000978 0.000978
0.79293460 1.41162801 0.62045193 0.995717 -0.001063 0.092452
0.80508912 1.43666983 0.49674562 0.996132 -0.001059 0.087863
0.80573612 1.51908386 0.49016038 0.996132 -0.001059 0.087863
0.80873030 1.43315911 0.45968643 0.996315 -0.001059 0.085761
0.79895449 1.49503183 0.55918276 0.995927 -0.001061 0.090153
0.80582488 1.38761914 0.48925731 0.996132 -0.001059 0.087863
0.81390101 1.42014384 0.40706000 0.996331 -0.001057 0.085581
0.81284130 1.38898087 0.41784576 0.996331 -0.001057 0.085581
0.83223730 1.40240681 0.22043711 0.996878 -0.001053 0.078950
0.82365191 1.31262779 0.30781716 0.996696 -0.001055 0.081212
0.79776436 1.23526442 0.57129586 0.995927 -0.001061 0.090153
0.79873669 1.31555438 0.56139934 0.995927 -0.001061 0.090153
0.80180740 1.26659214 0.53014660 0.996116 -0.001061 0.088049
0.79356462 1.33153546 0.61404014 0.995717 -0.001063 0.092452
0.83914000 1.22851062 0.15018283 0.997054 -0.001051 0.076696
0.81791157 1.18935692 0.36624113 0.996509 -0.001057 0.083483
0.81568587 1.23591423 0.38889435 0.996509 -0.001057 0.083483
0.83044863 1.30041218 0.23864150 0.996878 -0.001053 0.078950
0.80979490 1.20808566 0.44885096 0.996315 -0.001059 0.085761
0.06071589 1.77337599 1.09281957 0.000978 -0.000978 0.999999
0.09098358 1.94904006 1.09281957 0.000978 -0.000978 0.999999
0.02239338 1.91713071 1.09281957 0.000978 -0.000978 0.999999
0.00290795 1.77088463 1.09281957 0.000978 -0.000978 0.999999
0.02420357 -0.34738722 1.09281945 0.000978 -0.000978 0.999999
0.06614492 -0.47155663 1.09281945 0.000978 -0.000978 0.999999
0.04475385 -0.43756443 1.09281945 0.000978 -0.000978 0.999999
0.01184048 -0.38520661 1.09281945 0.000978 -0.000978 0.999999
0.06788742 1.10902405 1.09281945 0.000978 -0.000978 0.999999
0.02461573 1.08911097 1.09281945 0.000978 -0.000978 0.999999
0.01891183 1.53651392 1.09281957 0.000978 -0.000978 0.999999
0.01366549 1.65126538 1.09281957 0.000978 -0.000978 0.999999
0.86060292 1.49495757 -0.12743697 0.999999 -0.000978 0.000978
0.91214210 1.76751268 -0.46707150 0.899534 0.030651 0.435774
0.87800980 1.89583576 -0.44356027 0.893026 0.036368 0.448533
0.70454884 1.20726418 1.06121814 0.861485 -0.001340 0.507781
0.72179252 1.22631490 1.02027118 0.902354 -0.001302 0.430994
0.70574158 1.01992500 1.05838585 0.865181 -0.001337 0.501457
0.74866182 0.86185151 0.95646703 0.952288 -0.008646 0.305078
0.86060292 1.84047389 -0.10346045 0.999999 -0.000978 0.000978
0.86060292 1.71864212 -0.13688302 0.999999 -0.000978 0.000978
0.86060292 1.75997567 -0.10806392 0.999999 -0.000978 0.000978
0.74087459 1.67509437 0.97495878 0.940919 -0.001250 0.338631
0.74063110 1.57847011 0.97553706 0.940631 -0.001253 0.339429
0.73813653 1.50318444 0.98146057 0.935342 -0.001259 0.353743
0.72167540 1.35765684 1.02054930 0.902354 -0.001302 0.430994
0.73834008 1.11247790 0.98097718 0.936173 -0.001260 0.351537
0.74485546 -0.29836178 0.96550572 0.946931 0.001241 0.321435
0.73462224 -0.35385957 0.98990929 0.930303 0.001269 0.366791
0.74282163 -0.39840174 0.97067964 0.944882 0.001245 0.327410
0.74909973 -0.57138765 0.95551682 0.955540 0.001223 0.294859
0.71603847 -0.53591961 1.03559577 0.893629 0.003948 0.448789
0.70468742 -0.55491769 1.06512845 0.868141 0.006688 0.496272
0.70147502 0.56830782 1.06805062 0.848828 -0.001345 0.528668
0.70172745 0.19144170 1.06774771 0.852716 -0.001343 0.522373
0.68320554 0.21623169 1.08996403 0.481358 -0.001326 0.876523
0.69582075 0.63910455 1.07483256 0.757597 -0.001380 0.652721
0.71195757 1.93709016 1.04889035 0.868817 -0.001335 0.495132
0.70966452 1.75315571 1.04920459 0.871255 -0.001330 0.490829
0.74910057 1.90072846 0.95542538 0.956430 -0.003664 0.291937
0.68281996 1.84244978 1.09076619 0.449834 -0.001311 0.893111
0.69999760 1.75698292 1.07060242 0.811146 -0.001363 0.584843
0.81900579 2.07392406 0.50582707 0.991668 -0.114992 0.058066
0.83871657 2.04050970 0.31838205 0.925476 -0.362262 0.110729
0.83984292 2.07755160 0.30767021 0.986716 -0.154574 0.049975
0.61873269 2.10963511 1.00582123 0.010462 0.979987 0.198787
0.72344285 2.10858560 1.00594592 0.552018 0.747423 0.369641
0.84228176 1.94375086 0.10541408 0.859376 -0.234101 0.454609
0.84279376 1.85484350 0.09632219 0.846594 -0.120527 0.518412
0.81156957 2.14839935 0.57654428 0.943095 0.308087 0.125118
0.83046466 2.15081573 0.39685580 0.995186 0.036209 0.091070
0.83714062 2.03196025 0.26836747 0.883813 -0.451157 0.123819
0.80514711 1.83861911 0.49615601 0.965769 -0.230190 0.119596
0.83235466 1.99529850 0.21924227 0.845865 -0.484436 0.223235
0.81574696 1.87219238 0.38827276 0.939001 -0.290939 0.183388
0.79270101 1.92829406 0.62282908 0.926610 -0.373527 -0.043251
0.80788320 1.87323201 0.46830818 0.949714 -0.290080 0.117886
0.83019334 1.98623228 0.24124011 0.856234 -0.471004 0.212177
0.82313907 1.97413814 0.31303683 0.874898 -0.454246 0.167969
0.80262268 1.91115057 0.52184892 0.935185 -0.350857 0.048259
0.80417073 1.81611407 0.50609267 0.972739 -0.193536 0.127759
0.81904656 1.83325207 0.35468972 0.960853 -0.222749 0.164755
0.79435384 1.70666087 0.60600746 0.995376 -0.009664 0.095565
0.81062502 1.82967579 0.44040254 0.961943 -0.216536 0.166667
0.82527280 1.82694662 0.29132029 0.963879 -0.212601 0.160429
0.80906659 1.79082060 0.45626369 0.978236 -0.150402 0.142944
0.83730406 1.80140316 0.16886856 0.975744 -0.169096 0.139034
0.83255541 1.82418442 0.21719921 0.965737 -0.208703 0.154259
0.81980318 1.83001590 0.34698877 0.961811 -0.219130 0.164020
0.83466238 -0.36445078 0.19575465 0.916146 0.356516 0.183229
0.83186394 -0.32807145 0.22423694 0.978415 0.162449 0.127727
0.81941813 -0.36837932 0.35090780 0.912274 0.385369 0.138733
0.82604706 -0.37250027 0.28344002 0.900027 0.403362 0.165077
0.84856522 -0.40670595 0.17570111 0.942945 0.290662 0.162389
0.84659469 -0.45139748 0.24690247 0.874096 -0.475881 0.097436
0.82217282 -0.43865722 0.46591625 0.952912 -0.280733 0.114666
0.80727839 -0.44175842 0.63190055 0.942592 -0.329713 0.053013
0.82847697 -0.39572188 0.35680249 0.891119 0.440632 0.108398
0.78690857 1.14865243 0.68514097 0.924094 -0.001278 -0.382163
0.78932583 1.49171901 0.65825188 0.998260 -0.001034 -0.058965
0.78735155 1.64740276 0.68021357 0.945148 -0.001242 -0.326641
0.78982842 1.53771389 0.65266109 0.999960 -0.000987 0.008884
0.77687794 2.15690255 0.67418039 0.608179 0.777202 0.161477
0.80743593 1.09214008 0.47286013 0.996116 -0.001061 0.088049
0.82744884 1.15854061 0.26917291 0.996710 -0.001052 0.081042
0.81205922 1.14892161 0.42580578 0.996315 -0.001059 0.085761
0.79195249 1.06037021 0.63044798 0.995500 -0.001065 0.094759
0.82826984 1.13299477 0.26081702 0.996710 -0.001052 0.081042
0.82761383 1.08949924 0.26749390 0.996696 -0.001055 0.081212
0.84027070 1.06860387 0.13867471 0.997054 -0.001051 0.076696
0.75278139 2.23537779 -0.43026355 0.068182 0.175837 0.982055
0.70136744 2.22967815 -0.44080234 0.046630 0.068318 0.996573
0.70136744 2.21281552 -0.26294383 0.999999 -0.000978 0.000978
0.79330939 2.16989589 -0.43026355 0.155835 0.040402 0.986956
0.87536967 2.26321650 -0.45691156 0.705581 0.365068 0.607356
0.86297351 2.21494627 -0.44495958 0.567302 0.090941 0.818473
0.85702449 2.18192697 -0.05388705 0.763036 0.403576 -0.504878
0.86060292 2.11500764 -0.36769488 0.980397 0.197001 0.003456
0.70895636 2.14914227 -0.37394729 0.324417 0.945907 0.003729
0.86060292 1.73288941 -0.38826555 0.957246 0.185059 0.222337
0.83299088 2.22134447 -0.03236501 0.600480 0.482739 -0.637485
0.73200339 2.14889908 -0.30229804 0.095363 0.995414 0.007500
0.72819310 -0.72037905 0.99527395 0.723123 -0.310830 0.616829
0.86060292 -1.57296383 -0.11431675 0.822094 0.569351 0.001359
0.74486041 -0.74301541 0.96629596 0.840922 -0.210609 0.498492
0.86060292 -0.02283863 -0.22331271 0.999999 -0.000978 0.000978
0.86060292 0.51876652 -0.24325879 0.999999 -0.000978 0.000978
0.86060292 0.11496611 -0.24794655 0.999999 -0.000978 0.000978
0.86060292 -0.24859463 -0.22396705 0.999999 -0.000978 0.000978
0.86060292 0.24013092 -0.22655743 0.999999 -0.000978 0.000978
0.86060292 0.33238882 -0.19456758 0.999999 -0.000978 0.000978
0.86060292 0.59803748 -0.18360715 0.999999 -0.000978 0.000978
0.86060292 0.51965320 -0.22791509 0.999999 -0.000978 0.000978
0.86060292 0.80550051 -0.24051465 0.999999 -0.000978 0.000978
0.86060292 0.50773847 -0.21903983 0.999999 -0.000978 0.000978
0.86060292 1.03156543 -0.20707756 0.999999 -0.000978 0.000978
0.86060292 0.88989538 -0.18705919 0.999999 -0.000978 0.000978
0.86060292 1.14287758 -0.21636333 0.999999 -0.000978 0.000978
0.86060292 2.14015841 -0.27705279 0.756401 0.654072 0.006914
0.86060292 0.95570886 -0.25567764 0.999991 -0.002950 0.002950
0.86060292 1.00562358 -0.34111083 0.988683 -0.116109 0.094998
0.86060292 1.01846111 -0.39961496 0.970792 -0.185461 0.152206
0.86060292 0.91805404 -0.37947813 0.995404 -0.074020 0.060763
0.86060292 1.37928355 -0.28112990 0.964995 -0.018253 0.261632
0.86060292 1.50427544 -0.26789510 0.991095 0.014460 0.132368
0.86060292 1.25012231 -0.26417273 0.997811 -0.022174 0.062297
0.86060292 1.15033531 -0.31448925 0.975967 -0.110651 0.187734
0.86060292 -0.31186989 -0.43333554 0.999999 -0.000978 0.000978
0.86060292 -0.33141467 -0.26929468 0.999999 -0.000978 0.000978
0.86060292 -0.43977663 -0.37308463 0.902944 -0.424994 0.063817
0.86060292 -0.44532403 -0.26980525 0.835222 -0.547984 0.046014
0.86060292 0.01745619 -0.42868319 0.999999 -0.000978 0.000978
0.86060292 -0.26524556 -0.39785448 0.999999 -0.000978 0.000978
0.86060292 0.41468689 -0.43928805 0.999999 -0.000978 0.000978
0.86060292 0.35519537 -0.43058899 0.999999 -0.000978 0.000978
0.86060292 0.49064568 -0.39937034 0.999999 -0.000978 0.000978
0.86060292 0.17370157 -0.40826330 0.999999 -0.000978 0.000978
0.86060292 0.62701839 -0.44595602 0.999999 -0.000978 0.000978
0.86060292 -0.27332020 -0.37206107 0.999999 -0.000978 0.000978
0.86060292 -0.15962291 -0.39966172 0.999999 -0.000978 0.000978
0.86060292 -0.09940131 -0.32876942 0.999999 -0.000978 0.000978
0.86060292 0.28689048 -0.38326824 0.999999 -0.000978 0.000978
0.86060292 0.64582360 -0.40879864 0.999999 -0.000978 0.000978
0.86060292 -0.01966577 -0.27391803 0.999999 -0.000978 0.000978
0.86060292 0.50372696 -0.35326466 0.999999 -0.000978 0.000978
0.86060292 0.41776270 -0.27263454 0.999999 -0.000978 0.000978
0.86060292 0.58569270 -0.34746715 0.999999 -0.000978 0.000978
0.86060292 0.81394380 -0.41139251 0.999999 -0.000978 0.000978
0.86060292 0.59392434 -0.30860102 0.999999 -0.000978 0.000978
0.86060292 0.17465018 -0.27693018 0.999999 -0.000978 0.000978
0.86060292 0.62062573 -0.32462806 0.999999 -0.000978 0.000978
0.86060292 0.27042094 -0.26682955 0.999999 -0.000978 0.000978
0.86060292 0.22331086 -0.31257910 0.999999 -0.000978 0.000978
0.86060292 0.98350424 -0.13291208 0.999999 -0.000978 0.000978
0.86060292 0.93752557 -0.14229922 0.999999 -0.000978 0.000978
0.86060292 1.14860320 -0.09153215 0.999999 -0.000978 0.000978
0.86060292 1.13354146 -0.16339508 0.999999 -0.000978 0.000978
0.86060292 1.22168624 -0.13932930 0.999999 -0.000978 0.000978
0.86060292 1.29361784 -0.16577324 0.999999 -0.000978 0.000978
0.86060292 1.89559424 -0.30770528 0.999999 -0.000978 0.000978
0.86060292 1.98349106 -0.28105891 0.999999 -0.000978 0.000978
0.86060292 0.16907932 -0.12160322 0.999999 -0.000978 0.000978
0.86060292 -0.01895199 -0.14490311 0.999999 -0.000978 0.000978
0.86060292 -0.10290563 -0.16621312 0.999999 -0.000978 0.000978
0.86060292 0.20578118 -0.13943207 0.999999 -0.000978 0.000978
0.86060292 0.58447033 -0.11169876 0.999999 -0.000978 0.000978
0.86060292 0.80183929 -0.12985969 0.999999 -0.000978 0.000978
0.86060292 0.08920760 -0.08883546 0.999999 -0.000978 0.000978
0.86060292 0.48404527 -0.13327962 0.999999 -0.000978 0.000978
0.76258397 2.14816618 -0.16741008 0.249551 0.968355 -0.003582
0.81002605 2.15253592 -0.09384644 0.504629 0.854543 -0.122904
0.86060292 2.07379937 -0.18196133 0.999999 -0.000978 0.000978
0.86060292 2.04727030 -0.23769674 0.999999 -0.000978 0.000978
0.86060292 1.35762370 -0.23274800 0.999999 -0.000978 0.000978
0.86060292 1.46792793 -0.25020319 0.999999 -0.000978 0.000978
0.86060292 1.26277459 -0.18059292 0.999999 -0.000978 0.000978
0.86060292 -0.32305378 -0.24384387 0.999999 -0.000978 0.000978
0.86060292 -0.43840626 -0.21345100 0.853977 -0.519514 0.028786
0.86060292 1.55617023 -0.23399957 0.999999 -0.000978 0.000978
0.86060292 1.89578664 -0.20354602 0.999999 -0.000978 0.000978
0.86060292 1.71152544 -0.19390914 0.999999 -0.000978 0.000978
0.86060292 1.87465465 -0.24049200 0.999999 -0.000978 0.000978
0.86060292 1.56025350 -0.28401092 0.990741 0.058414 0.122554
0.86060292 1.63783967 -0.26231533 0.999999 -0.000978 0.000978
0.86060292 -1.84170699 -0.32432646 0.999303 -0.031838 0.019514
0.85885763 -1.89398539 -0.33496851 0.997385 0.063072 -0.035277
0.52202749 2.09060144 1.08546817 0.001384 0.698755 0.715359
0.49786276 1.78476512 1.09281957 0.000978 -0.000978 0.999999
0.48864147 1.87791193 1.09281957 0.000978 -0.000978 0.999999
0.30619639 1.46759653 1.09281957 0.000978 -0.000978 0.999999
0.27658740 1.45010471 1.09281957 0.000978 -0.000978 0.999999
0.27406895 0.86901152 1.09281945 0.000978 -0.000978 0.999999
0.22966549 2.08904839 1.08947766 0.001373 0.627537 0.778585
0.32371941 2.08960104 1.08805072 0.001380 0.652721 0.757597
0.80095840 0.91957819 0.53878748 0.995717 -0.001063 0.092452
0.79400498 0.94980967 0.60955739 0.995500 -0.001065 0.094759
0.81972396 1.00154006 0.34779537 0.996331 -0.001057 0.085581
0.80589360 0.95030087 0.48855755 0.995910 -0.001063 0.090344
0.79215223 1.01397395 0.62841475 0.995500 -0.001065 0.094759
0.83127266 0.88423473 0.23025474 0.996710 -0.001052 0.081042
0.82129461 0.96216100 0.33180931 0.996509 -0.001057 0.083483
0.82455039 0.93834198 0.29867283 0.996523 -0.001055 0.083307
0.82193828 0.85203779 0.32525849 0.996509 -0.001057 0.083483
0.83419931 0.98990470 0.20046765 0.996878 -0.001053 0.078950
0.80083370 0.84383321 0.54005623 0.995500 -0.001065 0.094759
0.74585438 2.02477503 0.96406281 0.950873 -0.003700 0.309558
