0.46851587 -0.70538950 -0.18290755 0.733473 -0.501676 0.458627
0.60832381 -0.69791198 -0.16141392 -0.908770 -0.317557 0.270729
0.56816369 -0.67632675 -0.19334348 -0.321785 -0.599910 0.732505
0.48308596 -0.78052694 -0.23968180 0.419214 -0.217754 0.881387
0.58016568 1.43320656 -0.13794585 0.710201 0.626077 -0.321936
-0.61428964 1.42056870 -0.13587734 0.088952 0.938638 -0.333236
-0.54823881 -0.76157665 -0.11353946 -0.475559 -0.603271 0.640240
-0.57759368 -0.75326228 -0.13154779 -0.663175 -0.549008 0.508714
-0.50462490 -0.85988742 -0.20048243 -0.392167 -0.740030 0.546408
-0.48406717 -0.83330369 -0.15541731 -0.303458 -0.730546 0.611732
-0.49917904 -0.85876375 -0.19517708 -0.306202 -0.758290 0.575531
-0.43350914 -0.85618138 -0.16275868 -0.215680 -0.752551 0.622213
-0.47733983 -0.79976445 -0.11651227 -0.230406 -0.688082 0.688082
-0.57146633 -0.81858343 -0.21130265 -0.681267 -0.632019 0.369362
-0.60103673 -0.69693488 -0.10221826 -0.716161 -0.496826 0.490180
0.51664948 -0.79583961 -0.13208000 0.365810 -0.677487 0.638117
0.47175375 -0.86895347 -0.19622368 0.297809 -0.769207 0.565359
0.40357652 -0.89141279 -0.19843443 0.197884 -0.786933 0.584447
0.46161214 -0.86642593 -0.18771498 0.242609 -0.774783 0.583826
0.36380684 -0.91249090 -0.21495442 0.188396 -0.827435 0.529016
0.60480249 -0.69435084 -0.11106998 0.748968 -0.498764 0.436212
-0.32694444 0.27863729 0.56325114 -0.056449 -0.132481 0.989577
-0.21152513 0.29437327 0.57109791 -0.035026 -0.129936 0.990903
-0.15691185 0.29891437 0.57332778 -0.016625 -0.125245 0.991986
-0.38596907 0.37486106 0.56803751 -0.081480 -0.065853 0.994497
-0.20716110 0.33717239 0.57592642 -0.031063 -0.067482 0.997237
-0.24889785 0.40513337 0.57803458 -0.053208 -0.017736 0.998426
-0.29816264 0.45021966 0.57630408 -0.051127 -0.017738 0.998535
-0.17665088 0.45960766 0.58138841 -0.029725 -0.019475 0.999368
-0.23549749 0.47045121 0.57983661 -0.029664 -0.019435 0.999371
-0.33146128 0.53131622 0.57449615 -0.075076 0.009517 0.997132
-0.03215615 0.33618236 0.57850736 -0.003128 -0.065688 0.997835
-0.04413632 0.35512570 0.57971787 -0.003122 -0.065552 0.997844
-0.10203590 0.22834051 0.56358665 -0.021969 -0.176909 0.983982
-0.40255550 0.58354366 0.56841940 -0.104365 0.025267 0.994218
-0.41285878 0.26450360 0.55355030 -0.114327 -0.197246 0.973665
-0.27057177 0.63173687 0.57595116 -0.049442 0.030507 0.998311
-0.20237453 0.60225087 0.57960755 -0.030025 0.030025 0.999098
-0.21740654 0.61641234 0.57871300 -0.032093 0.030023 0.999034
-0.12078071 0.58421999 0.58202159 -0.015252 0.027453 0.999507
-0.14882788 0.71839607 0.57699394 -0.017492 0.038072 0.999122
-0.14191537 0.69875246 0.57787699 -0.015434 0.040128 0.999075
-0.41452229 0.66997832 0.56501836 -0.095628 0.036273 0.994756
-0.39978462 0.72362620 0.56450361 -0.088699 0.036137 0.995403
0.21455885 0.32122132 0.57431477 0.030316 -0.126879 0.991455
0.31291914 0.40380087 0.57448184 0.051127 -0.017738 0.998535
0.16325541 0.40360007 0.58057719 0.029725 -0.019475 0.999368
0.33024922 0.54541308 0.57419896 0.075076 0.009517 0.997132
0.36660591 0.51257545 0.57160050 0.079282 0.005285 0.996838
0.03885561 0.39839810 0.58178294 0.002996 -0.020974 0.999776
0.13989998 0.24335364 0.56546766 0.019678 -0.184043 0.982721
0.09602077 0.24185875 0.56607974 0.021969 -0.176909 0.983982
0.25319019 0.22582178 0.55786186 0.061331 -0.188804 0.980098
0.39904135 0.51530778 0.56888741 0.104739 0.005399 0.994485
0.32087442 0.66867328 0.57186437 0.070192 0.039956 0.996733
0.26229724 0.67997652 0.57450801 0.049846 0.039241 0.997986
-0.69167525 -0.61883253 -0.71768653 -0.994826 0.061135 -0.081142
-0.68391854 -0.54620802 -0.60372233 -0.977080 0.168033 0.130692
-0.67931163 -0.70744783 -0.82397711 -0.977360 -0.082162 -0.194981
-0.68085802 -0.76259691 -0.76814836 -0.977080 -0.168033 -0.130692
-0.67495233 -0.78711182 -0.62749642 0.001279 -0.921899 0.387428
-0.68499500 -0.71581894 -0.58867800 -0.994099 -0.065975 0.086103
-0.68611592 -0.72520477 -0.60972893 -0.994099 -0.086103 0.065975
-0.69192272 -0.81924653 -0.61251509 -0.805600 0.545829 -0.230392
-0.59733868 -0.75811350 -0.54935628 0.829352 0.341498 -0.442216
-0.65897596 -0.58353400 -0.52871096 0.001279 -0.387428 -0.921899
-0.68731791 -0.54607803 -0.53022885 -0.803835 -0.362765 -0.471434
-0.68869752 -0.52767384 -0.54205179 -0.801762 -0.366474 -0.472095
-0.62128586 -0.53868437 -0.55418712 0.001370 -0.612421 -0.790530
-0.59724307 -0.48052111 -0.61339402 0.830111 -0.513298 -0.217809
-0.65523136 -0.47626674 -0.65899295 0.001098 -0.991141 -0.132811
-0.66180515 -0.48831794 -0.75676954 0.001279 -0.921899 0.387428
-0.64449596 -0.52830619 -0.81362092 0.001370 -0.612421 0.790530
-0.67828667 -0.57465726 -0.85166341 -0.468028 -0.344278 0.813893
-0.66566622 -0.64974111 -0.85872126 0.001098 0.132811 0.991141
-0.67804921 -0.72526264 -0.84642732 -0.468538 0.341477 0.814780
-0.67560369 -0.80373681 -0.76298642 -0.468028 0.813893 0.344278
-0.68377322 -0.62646067 -0.51814699 -0.464038 0.808479 -0.361982
0.68834203 -0.66066539 -0.72082436 0.999476 -0.013245 -0.029546
0.68122274 -0.73027301 -0.68513858 0.918041 0.393065 -0.051965
0.68334895 -0.71152258 -0.62667936 0.917244 0.315348 -0.243350
0.67900699 -0.77633810 -0.65861702 0.977281 -0.210181 0.027312
0.68058056 -0.52422392 -0.73322839 0.977360 0.194981 -0.082162
0.68039721 -0.70472497 -0.80205429 0.977360 -0.082162 -0.194981
0.68164092 -0.57007128 -0.78352928 0.994099 0.065975 -0.086103
0.66182905 -0.80211657 -0.62499577 0.001279 0.921899 -0.387428
0.65276617 -0.65583926 -0.51792461 0.001098 0.132811 -0.991141
0.66965139 -0.52530259 -0.55988199 0.999999 0.000978 0.000978
0.68345714 -0.46943006 -0.62832564 0.809104 -0.540944 -0.229631
0.64950562 -0.49346602 -0.76896912 0.001279 -0.921899 0.387428
0.61075246 -0.50464600 -0.78595579 0.001370 -0.790530 0.612421
0.60280323 -0.59850615 -0.85338867 0.001098 -0.132811 0.991141
0.59480482 -0.65173733 -0.86628032 -0.829462 0.075406 0.553449
0.66387671 -0.69832116 -0.84967846 0.001279 0.387428 0.921899
0.68375701 -0.81565946 -0.75533926 0.804239 0.547994 0.230003
0.68502057 -0.74494416 -0.55098158 0.924156 -0.380381 -0.035293
0.68307883 -0.79482126 -0.66106623 0.920253 0.176700 -0.349159
-0.72795945 1.09985459 -0.63626987 -0.994826 -0.081142 0.061135
-0.72124588 1.23231077 -0.68984985 -0.314536 0.940907 -0.125544
-0.72714311 1.12422895 -0.58644813 -0.993937 -0.043311 0.101060
-0.72660822 1.08365715 -0.76085317 -0.994073 -0.066122 -0.086295
-0.72434938 1.13750958 -0.55865872 -0.977281 -0.027312 0.210181
-0.72053480 1.29921353 -0.69630837 -0.977281 0.210181 -0.027312
-0.70590502 1.26842964 -0.57374871 0.001370 0.790530 0.612421
-0.71617091 1.02951503 -0.77283823 0.001370 -0.790530 -0.612421
-0.58997416 1.00185120 -0.59764367 0.830111 0.513298 -0.217809
-0.67773139 1.01280189 -0.59046572 0.001370 0.790530 -0.612421
-0.58851612 1.02327931 -0.56452215 0.829352 0.442216 -0.341498
-0.62863892 1.06234753 -0.54055715 0.001370 0.612421 -0.790530
-0.63633686 1.09347928 -0.52479810 0.001279 0.387428 -0.921899
-0.64192772 1.11089814 -0.51747257 0.001098 0.132811 -0.991141
-0.57985181 1.15055645 -0.49151400 0.829462 0.075406 -0.553449
-0.61213219 1.32475269 -0.65870625 0.001098 -0.991141 -0.132811
-0.60899013 1.32759833 -0.68599331 0.001098 -0.991141 0.132811
-0.67370504 1.24060166 -0.83212030 0.001279 -0.387428 0.921899
-0.70735204 1.20920360 -0.84537089 0.001279 -0.387428 0.921899
-0.71590340 1.08008218 -0.84242642 -0.458154 0.344012 0.819604
-0.73023063 0.99927568 -0.78840011 -0.803835 0.471434 0.362765
-0.72875130 0.98036337 -0.74590933 -0.809673 0.541324 0.226709
-0.58709586 0.99168372 -0.75515038 0.830111 0.513298 0.217809
-0.64730638 0.98789483 -0.70568115 0.001098 0.991141 0.132811
-0.71001291 0.98529339 -0.68632025 0.001098 0.991141 0.132811
-0.72312236 1.10195589 -0.52617812 -0.117573 -0.986903 0.110448
-0.72793752 1.15065336 -0.84741664 -0.924310 0.313783 -0.217234
-0.72027904 1.19751382 -0.85040504 -0.100950 -0.992483 0.069190
0.72504109 1.12500703 -0.62313938 0.994858 -0.038560 0.093647
0.72614044 1.16479361 -0.73882693 0.994820 0.014073 -0.100673
0.72306836 1.08551478 -0.62630183 0.918074 0.312751 -0.243571
0.72218746 1.26259661 -0.72518384 0.993937 0.101060 -0.043311
0.71793187 1.20881891 -0.81182903 0.977360 0.082162 -0.194981
0.71447569 1.11365640 -0.83321708 0.977360 -0.082162 -0.194981
0.71645862 1.11321890 -0.82309210 0.977360 -0.082162 -0.194981
0.71732348 1.05231881 -0.78036237 0.977395 -0.168087 -0.128244
0.71117520 1.04834199 -0.57007778 0.001370 -0.612421 0.790530
0.63100803 0.99971372 -0.61660129 0.001279 0.921899 -0.387428
0.72929573 1.00292552 -0.56702292 0.801762 0.472095 -0.366474
0.66107154 1.05955660 -0.54271334 0.001370 0.612421 -0.790530
0.57704914 1.02733302 -0.54311734 -0.829352 0.341498 -0.442216
0.60303056 1.09071338 -0.52596539 0.001279 0.387428 -0.921899
0.58570939 1.07110500 -0.52718961 -0.830111 0.217809 -0.513298
0.66701484 1.14351785 -0.51308978 0.001098 0.132811 -0.991141
0.64876574 1.19533205 -0.51658392 0.001098 -0.132811 -0.991141
0.61598903 1.32046902 -0.63398212 0.001279 -0.921899 -0.387428
0.71849191 1.33135259 -0.72964823 0.452594 -0.883907 0.117760
0.58757329 1.31465101 -0.75526083 -0.830111 -0.513298 0.217809
0.57934034 1.28036606 -0.82243252 -0.829352 -0.341498 0.442216
0.66178834 1.20775509 -0.84598231 0.001279 -0.387428 0.921899
0.60878050 1.07724988 -0.83423156 0.001279 0.387428 0.921899
0.66191787 1.05243421 -0.81766289 0.001370 0.612421 0.790530
0.71658528 1.00942528 -0.59165907 0.099289 -0.836039 -0.539612
0.71629566 1.23235810 -0.52855170 0.101526 0.716571 -0.690086
0.72482157 1.22002161 -0.53338182 0.924310 0.217234 -0.313783
-0.70286340 -0.86992019 -0.62874746 -0.990645 -0.135139 0.018986
-0.61703217 -0.91315931 -0.61855602 0.001098 -0.991141 0.132811
-0.69361693 -0.81832916 -0.60303253 -0.920364 0.360021 -0.152694
-0.70272130 -0.86021411 -0.61321640 -0.993295 0.106145 -0.045810
-0.61259210 -0.91194904 -0.61249602 0.001279 -0.921899 0.387428
-0.57962304 -0.84775859 -0.59816515 0.993423 0.105921 -0.043483
-0.63099170 -0.85294646 -0.50656182 0.001370 -0.790530 0.612421
-0.58020568 -0.84804738 -0.55706245 0.989826 -0.112559 0.087030
-0.68773746 -0.75667101 -0.44077504 -0.691598 -0.287230 0.662715
-0.70289648 -0.64828157 -0.45682144 -0.993513 0.014240 -0.112825
-0.59265459 -0.68751508 -0.42066705 0.693077 -0.101534 0.713678
-0.68314362 -0.58469826 -0.41902959 -0.324977 0.129175 0.936858
-0.59217942 -0.62230515 -0.41810599 0.687083 0.101518 0.719451
-0.63424939 -0.53005981 -0.43617225 0.001279 0.387428 0.921899
-0.64188772 -0.49936971 -0.45053494 0.001370 0.612421 0.790530
-0.58294630 -0.53254944 -0.51338220 0.924983 -0.232315 -0.300726
-0.58249068 -0.41980976 -0.56940466 0.905810 0.389427 0.166897
-0.58728248 -0.46074149 -0.61898673 0.922934 -0.354975 -0.148950
-0.68688065 -0.37439457 -0.64519125 -0.687083 0.719451 0.101518
-0.66666543 -0.36599019 -0.68389750 0.001098 0.991141 0.132811
-0.58103162 -0.39367741 -0.68738025 0.990982 0.132651 0.018950
-0.58963311 -0.37778091 -0.71808749 0.687083 0.719451 -0.101518
-0.59513992 -0.37699467 -0.75053567 0.691825 0.715327 -0.098413
-0.60826319 -0.38315523 -0.78032804 0.001279 0.921899 -0.387428
-0.64852321 -0.39921257 -0.81837904 0.001279 0.921899 -0.387428
-0.58399034 -0.42028040 -0.81563216 0.905810 0.389427 -0.166897
-0.68433279 -0.44129947 -0.87256444 -0.439570 0.708288 -0.552365
-0.70218474 -0.49655786 -0.85710901 -0.992605 -0.073736 0.096425
-0.64255691 -0.49635023 -0.92295837 0.001370 0.612421 -0.790530
-0.70106435 -0.54091203 -0.87722325 -0.992995 -0.046003 0.108837
-0.70038676 -0.52957672 -0.91022521 -0.989923 0.056337 -0.129920
-0.69205385 -0.54587531 -0.93687540 -0.688446 0.287254 -0.665979
-0.57898396 -0.55264026 -0.89700162 0.993910 -0.043407 0.101283
-0.69819003 -0.63738912 -0.94490397 -0.902702 0.058195 -0.426313
-0.58498520 -0.69796610 -0.88298035 0.915682 0.051982 0.398528
-0.70238239 -0.73637086 -0.90430242 -0.989923 -0.056337 -0.129920
-0.58350140 -0.75883543 -0.91601068 0.906814 -0.167082 -0.387003
-0.58066553 -0.73972130 -0.87921667 0.994030 0.041094 0.101069
-0.69955271 -0.78170270 -0.84431392 -0.921923 0.235841 0.307308
-0.70146066 -0.83842498 -0.78728205 -0.992995 0.108837 0.046003
-0.62437576 -0.89788800 -0.79665023 0.001279 -0.921899 -0.387428
-0.68642193 -0.91414917 -0.72936267 -0.687083 -0.719451 -0.101518
0.69864953 -0.84646434 -0.59259325 0.993295 0.106145 -0.045810
0.64274269 -0.88756812 -0.55472112 0.001279 -0.921899 0.387428
0.57686371 -0.87041813 -0.59906822 -0.989969 -0.129625 0.056209
0.64756954 -0.85668397 -0.51139921 0.001370 -0.790530 0.612421
0.58168840 -0.85779935 -0.54253000 -0.905340 -0.336017 0.259717
0.68632567 -0.82356340 -0.48685074 0.694619 -0.441425 0.568022
0.65528750 -0.78955048 -0.45129928 0.001370 -0.612421 0.790530
0.69921142 -0.75217432 -0.48084667 0.990430 -0.053815 0.127096
0.66358221 -0.73764479 -0.42763636 0.001279 -0.387428 0.921899
0.69621509 -0.66217721 -0.48145410 0.913831 0.052181 -0.402728
0.69450468 -0.60683000 -0.43485302 0.902199 0.058338 0.427357
0.58436340 -0.63719022 -0.49320483 -0.911815 -0.055058 -0.406893
0.69710821 -0.51819408 -0.47255820 0.989779 0.087231 0.112819
0.62334085 -0.47235638 -0.47140428 0.001370 0.612421 0.790530
0.59744835 -0.46078128 -0.48187661 -0.424946 0.553917 0.715959
0.65607947 -0.44276461 -0.49648881 0.001370 0.790530 0.612421
0.59250361 -0.43143442 -0.51679206 -0.425953 0.714341 0.555230
0.69080073 -0.39039141 -0.61174381 0.901769 0.397123 0.170605
0.68008471 -0.40236717 -0.55610222 0.398615 0.845689 0.354846
0.62143415 -0.39511770 -0.56715089 0.001279 0.921899 0.387428
0.58659548 -0.39663604 -0.58541852 -0.701766 0.653809 0.282944
0.58275914 -0.40645194 -0.57985681 -0.906814 0.387003 0.167082
0.61985821 -0.37425920 -0.62236929 0.001098 0.991141 0.132811
0.64195228 -0.37085527 -0.64769733 0.001098 0.991141 0.132811
0.58741415 -0.37903494 -0.63964939 -0.693281 0.713888 0.098620
0.60383171 -0.36828390 -0.70899576 0.001098 0.991141 -0.132811
0.64702910 -0.37423536 -0.75327945 0.001098 0.991141 -0.132811
0.59271741 -0.38380447 -0.77491349 -0.336335 0.864642 -0.373194
0.57889897 -0.39925715 -0.75841361 -0.906814 0.387003 -0.167082
0.59928006 -0.55494285 -0.94986808 -0.335312 0.365934 -0.868135
0.69817775 -0.61029595 -0.92587101 0.990603 0.019029 -0.135438
0.69914573 -0.63327140 -0.92179662 0.990941 0.018992 -0.132945
0.64493608 -0.60476959 -0.96115959 0.001098 0.132811 -0.991141
0.58242810 -0.63190103 -0.88633013 -0.911403 -0.052195 0.408191
0.69680190 -0.64643568 -0.94023740 0.990941 -0.018992 -0.132945
0.62587410 -0.66296375 -0.96387357 0.001098 -0.132811 -0.991141
0.60034257 -0.76418084 -0.93699110 0.001279 -0.387428 -0.921899
0.69798219 -0.77197140 -0.86495292 0.992820 0.073752 0.094176
0.64441669 -0.78740126 -0.92618722 0.001370 -0.612421 -0.790530
0.63419133 -0.85118973 -0.87153798 0.001370 -0.790530 -0.612421
-0.57023597 0.91339517 -0.64088416 0.990300 -0.137635 0.019023
-0.57071644 0.94310594 -0.64906514 0.995084 0.098320 -0.011885
-0.73605818 0.97587353 -0.59341425 -0.939287 0.315807 -0.134184
-0.59344590 0.89112860 -0.58864099 0.394495 -0.846683 0.357073
-0.56999069 0.95505333 -0.58428603 0.994516 0.096243 -0.040931
-0.73788953 0.98971421 -0.56107086 -0.940777 0.269386 -0.205838
-0.56877112 0.98030072 -0.52572930 0.994099 0.086103 -0.065975
-0.67644584 0.97495502 -0.46781516 0.001370 -0.612421 0.790530
-0.67201126 1.00032485 -0.44821486 0.001370 -0.612421 0.790530
-0.58633417 0.97289521 -0.47376138 0.433168 -0.552663 0.711989
-0.57177746 0.99467629 -0.48485318 0.899948 -0.267472 0.344315
-0.56913495 1.02364457 -0.48414880 0.989264 -0.089721 0.115356
-0.73367476 1.02437258 -0.44695520 -0.901769 -0.170605 0.397123
-0.63851905 1.05295789 -0.42143983 0.001279 -0.387428 0.921899
-0.70224583 1.14621544 -0.40082479 0.001098 -0.132811 0.991141
-0.68435770 1.20167732 -0.40553379 0.001098 0.132811 0.991141
-0.60637748 1.29338348 -0.43557394 0.001279 0.387428 0.921899
-0.73962998 1.33201277 -0.49517965 -0.900507 0.266762 0.343401
-0.57427478 1.28984213 -0.52707684 0.944135 -0.199272 -0.262489
-0.59130883 1.37103736 -0.50251490 0.414021 0.720825 0.555876
-0.73798889 1.40391040 -0.60036623 -0.902794 0.394703 0.170799
-0.59570599 1.41423082 -0.57072306 0.001279 0.921899 0.387428
-0.64026916 1.43494046 -0.64594746 0.001098 0.991141 0.132811
-0.73477805 1.41649067 -0.75283450 -0.903742 0.424095 -0.058262
-0.68535131 1.42982137 -0.75802863 0.001098 0.991141 -0.132811
-0.74163657 1.38273454 -0.77388388 -0.989624 0.132180 -0.056320
-0.64028293 1.40751135 -0.81108350 0.001279 0.921899 -0.387428
-0.56945527 1.35356092 -0.80247706 0.994457 -0.083709 0.063618
-0.68500751 1.30684578 -0.92205054 0.001370 0.612421 -0.790530
-0.57118201 1.33094168 -0.86700964 0.989264 0.089721 -0.115356
-0.61648875 1.24764144 -0.94960946 0.001279 0.387428 -0.921899
-0.67700583 1.25541687 -0.94632816 0.001279 0.387428 -0.921899
-0.73093933 1.16232133 -0.95851499 -0.693281 0.098620 -0.713888
-0.66004580 1.16537774 -0.96522319 0.001098 0.132811 -0.991141
-0.57090205 1.19379401 -0.93137074 0.990645 0.018986 -0.135139
-0.73876512 1.11646545 -0.88725221 -0.933243 0.045683 0.356329
-0.73443717 1.10855305 -0.94679546 -0.903742 -0.058262 -0.424095
-0.64508677 1.10951352 -0.96012288 0.001098 -0.132811 -0.991141
-0.73305494 1.07387054 -0.85747433 -0.939287 0.134184 0.315807
-0.56902939 1.07454479 -0.90653992 0.990139 -0.053799 -0.129348
-0.74070239 1.02398276 -0.85389817 -0.994099 0.065975 0.086103
-0.73997629 1.01958299 -0.89962280 -0.989264 -0.089721 -0.115356
-0.57068133 0.99785227 -0.87514126 0.989264 -0.089721 -0.115356
-0.56969434 1.01117408 -0.85750180 0.994099 0.065975 0.086103
-0.66195601 0.94118452 -0.86425924 0.001370 -0.790530 -0.612421
-0.59110457 0.92152220 -0.83695132 0.414021 -0.720825 -0.555876
-0.57108057 0.93945819 -0.81402308 0.989527 -0.113056 -0.089745
-0.73706108 0.97709721 -0.78232753 -0.939626 0.315920 0.131520
-0.73418373 0.96825993 -0.74093682 -0.936678 0.323133 0.134980
-0.74043465 0.95989680 -0.76557064 -0.994627 0.096041 0.038637
-0.58243614 0.90270692 -0.78917634 0.685279 -0.669230 -0.287271
-0.56895548 0.95079011 -0.79660040 0.994858 0.093647 0.038560
-0.59430277 0.87898403 -0.72794223 0.001098 -0.991141 -0.132811
-0.68145442 0.87332076 -0.68579686 0.001098 -0.991141 -0.132811
0.61600089 0.87891191 -0.63847375 0.001098 -0.991141 0.132811
0.57252908 0.89233494 -0.65422243 -0.900494 -0.430553 0.061119
0.56753254 0.91030812 -0.62012273 -0.990300 -0.137635 0.019023
0.73905510 0.94062942 -0.59343755 0.994540 0.096032 -0.040841
0.56878251 0.92284065 -0.57486510 -0.899651 -0.401604 0.171294
0.56726289 1.02776563 -0.46659413 -0.989527 -0.089745 0.113056
0.56747800 1.04208755 -0.50017565 -0.994099 0.065975 -0.086103
0.56558216 1.03758132 -0.48120794 -0.994314 0.065841 -0.083696
0.73070973 1.05796599 -0.51160294 0.939626 0.131520 -0.315920
0.72859848 1.06279600 -0.42707887 0.697027 -0.283618 0.658570
0.56755489 1.05507600 -0.45204329 -0.990261 -0.056226 0.127368
0.68841910 1.11427689 -0.40511641 0.001098 -0.132811 0.991141
0.56532323 1.13595450 -0.44713184 -0.990300 -0.019023 0.137635
0.56645596 1.10580897 -0.46452856 -0.994848 0.011908 -0.100676
0.56947893 1.13444495 -0.47685081 -0.933579 0.045572 -0.355463
0.73120075 1.16644323 -0.48536330 0.933243 -0.045683 -0.356329
0.73806357 1.21853673 -0.46593899 0.994540 -0.040841 -0.096032
0.57487470 1.23294592 -0.42207363 -0.899651 0.171294 0.401604
0.62183732 1.31352592 -0.44898960 0.001370 0.612421 0.790530
0.64903128 1.34257329 -0.47143117 0.001370 0.612421 0.790530
0.59300399 1.39243364 -0.52850467 0.001370 0.790530 0.612421
0.66291499 1.39148605 -0.52727830 0.001370 0.790530 0.612421
0.56761771 1.37146914 -0.54865098 -0.989527 0.113056 0.089745
0.73694456 1.36885738 -0.66675073 0.994848 -0.100676 -0.011908
0.67284817 1.43547130 -0.64989758 0.001098 0.991141 0.132811
0.65460777 1.43166351 -0.74431926 0.001098 0.991141 -0.132811
0.56562877 1.39160800 -0.72484916 -0.990645 0.135139 -0.018986
0.73161703 1.40717804 -0.77296603 0.902794 0.394703 -0.170799
0.63170105 1.41343558 -0.79704469 0.001279 0.921899 -0.387428
0.66064781 1.41282976 -0.79848021 0.001279 0.921899 -0.387428
0.56560224 1.37257111 -0.78433615 -0.990139 0.129348 -0.053799
0.57863820 1.30439901 -0.91525918 -0.684708 0.448142 -0.574755
0.63256145 1.29383290 -0.93011576 0.001279 0.387428 -0.921899
0.68503648 1.27433944 -0.93834233 0.001279 0.387428 -0.921899
0.73511952 1.18896580 -0.88782877 0.934770 -0.045503 0.352327
0.72341269 1.20704818 -0.95617527 0.696261 0.098625 -0.710981
0.65526307 1.22454154 -0.95727366 0.001098 0.132811 -0.991141
0.57449126 1.15906060 -0.87831545 -0.933579 -0.045572 0.355463
0.68486345 1.15260887 -0.96591365 0.001098 -0.132811 -0.991141
0.56615901 1.15344584 -0.91063678 -0.995084 0.011885 0.098320
0.57123315 1.15449393 -0.88695258 -0.933129 0.048288 0.356285
0.62301797 0.98147225 -0.90309918 0.001370 -0.612421 -0.790530
0.64429528 0.97020233 -0.89439213 0.001370 -0.612421 -0.790530
0.73719698 0.99916655 -0.83366030 0.994099 0.086103 0.065975
0.61918992 0.93349969 -0.85431200 0.001370 -0.790530 -0.612421
0.60931802 0.91479194 -0.83009666 0.001370 -0.790530 -0.612421
0.73154974 0.97894681 -0.77251863 0.939626 0.315920 0.131520
0.73845059 0.94614124 -0.77100945 0.994302 0.098435 0.040922
0.60349518 0.89722097 -0.79184753 0.001279 -0.921899 -0.387428
0.68650037 0.88985980 -0.77440518 0.001279 -0.921899 -0.387428
0.73305184 0.95487714 -0.69909388 0.933129 0.356285 0.048288
0.47725713 0.44947073 0.55465603 -0.999131 -0.041673 -0.001016
0.68807662 1.05490959 -0.17412080 0.003364 0.987776 0.155847
0.60276717 -0.28755736 0.18514080 0.892359 -0.190700 0.409059
0.60787863 -0.21461166 0.20439665 0.928179 -0.127505 0.349609
0.56968027 -0.16101198 0.30744141 0.826433 -0.254881 0.502039
0.59096408 -0.17801553 0.25988892 0.893536 -0.166004 0.417176
0.54280561 0.10467499 0.45018509 0.868496 -0.097759 0.485961
0.47944251 0.55860478 0.56090182 0.525959 0.009465 0.850457
0.62958181 -0.35968748 0.08444627 0.945054 -0.130399 0.299782
0.59241956 -0.59404016 -0.02069255 0.633255 -0.535312 0.558953
0.66144198 1.20230055 0.08944631 0.975864 0.069792 0.206927
0.67117739 1.19052815 0.03885569 0.982710 0.080393 0.166785
0.64978927 1.20935810 0.14181417 0.966167 0.061087 0.250580
0.63693851 1.08798420 0.20919466 0.957807 0.049086 0.283189
0.52900958 0.60876524 0.49837810 0.894653 0.009223 0.446667
0.52570873 0.68253559 0.50388253 0.887167 0.003966 0.461432
0.58672625 0.97598094 0.36299491 0.948664 -0.023874 0.315384
0.58509821 0.91482931 0.36058939 0.948178 -0.203278 0.244207
0.52546018 0.81793433 0.50115472 0.877916 0.017424 0.478498
0.65900970 1.06885540 0.13051444 0.969813 0.015584 0.243352
0.66548127 1.00249076 0.11324321 0.961577 0.030859 0.272796
0.68152684 1.01783311 0.03686800 0.983770 0.033843 0.176215
0.68558407 1.05773830 0.00214863 0.989873 0.035231 0.137514
0.68975836 0.98937970 -0.01041635 0.990268 0.035084 0.134677
0.69162029 1.03846979 -0.04720446 0.996194 0.040283 0.077300
0.69571042 0.94210106 -0.09768451 0.972511 -0.215422 0.088410
0.69331819 0.93049067 -0.21799459 0.998991 0.019669 -0.040374
0.69342381 0.78761208 -0.45911169 0.981928 -0.172289 0.078313
0.66478425 0.10867912 -0.65289044 0.891212 -0.073005 0.447672
0.68439800 0.71791774 -0.51056218 0.987924 -0.143127 0.059345
0.69411027 0.86127812 -0.35353816 0.997486 -0.039557 0.058801
0.69286394 0.91425610 -0.30241629 0.995401 -0.025021 0.092469
0.68019235 0.59305340 -0.68432844 0.946925 0.003723 -0.321433
0.66651624 0.04284026 -0.70278221 0.926827 -0.016758 -0.375114
0.66134942 -0.04345314 -0.71160728 0.932527 -0.021806 -0.360440
0.68819010 0.60891199 -0.65949440 0.983446 -0.014953 -0.180586
0.68570155 0.41754514 -0.65723675 0.977704 -0.012880 -0.209592
0.68464583 0.33214658 -0.65404338 0.889538 -0.073094 0.450975
0.67999363 0.26726878 -0.65568894 0.868170 -0.074095 0.490705
0.68669599 0.75436747 -0.45347717 0.987517 -0.147720 0.054668
0.67413503 0.59934288 -0.55877447 0.986699 -0.069386 0.147005
0.66592771 0.42719212 -0.58793432 0.950854 -0.084549 0.297873
0.65426934 -0.03930195 -0.65449440 0.940178 -0.061288 0.335126
0.49420574 0.96716774 0.53672141 0.698282 0.029624 0.715210
0.60189539 1.05173171 0.32169169 0.934460 0.016573 0.355681
0.69493943 0.91889238 -0.19023725 0.998489 0.019865 -0.051231
0.68392652 1.19867027 -0.24538155 0.999050 0.042098 0.011294
0.68949503 1.04864287 -0.23950551 0.999658 0.021269 -0.015192
0.68489957 1.16842806 -0.11392558 0.997132 0.075076 0.009517
0.65280062 0.40079993 -0.58323765 -0.003419 -0.181190 0.983442
0.67630941 0.74325383 -0.40916702 0.001373 -0.778585 0.627537
0.67684871 0.79652882 -0.33966461 0.001365 -0.806665 0.591008
0.67163080 0.94376081 -0.07492796 0.001302 -0.902354 0.430994
0.67208338 0.97508079 0.03542731 -0.005776 -0.980742 0.195224
0.61887115 0.96047980 0.25817212 0.001235 -0.949911 -0.312519
0.51449025 0.46827236 0.49397546 0.001001 0.025017 -0.999686
0.61036384 -0.22547308 0.18762603 -0.004142 0.658597 -0.752485
0.69292837 0.98099530 -0.28582805 0.986911 -0.033396 0.157768
0.64312142 1.02769101 0.19408382 0.961569 0.001210 0.274561
0.66996020 1.26346695 0.00005553 0.988541 0.087740 0.122836
0.67047787 1.27729607 -0.01673533 0.991515 0.090764 0.093062
0.67922765 1.23579049 -0.09008454 0.995613 0.084337 0.040525
-0.47191975 0.82150859 0.55818516 0.999976 -0.006896 -0.000985
-0.62187833 -0.31433192 0.13594949 -0.904015 -0.191761 0.382080
-0.59824795 -0.29408473 0.19597247 -0.839321 -0.257186 0.478952
-0.55594718 -0.11812703 0.35113528 -0.629146 -0.384753 0.675382
-0.56783098 -0.13897653 0.32625806 -0.814480 -0.242644 0.527016
-0.56718856 -0.01047877 0.37717903 -0.925631 -0.081950 0.369447
-0.54280734 0.09902968 0.45565647 -0.875149 -0.085689 0.476205
-0.52988082 0.26405829 0.50039482 -0.871684 -0.025757 0.489390
-0.52989733 0.24722686 0.49944934 -0.867230 -0.031313 0.496922
-0.53729409 0.27026039 0.48457164 -0.910214 -0.011753 0.413971
-0.52284741 0.33663848 0.51609522 -0.874404 -0.017461 0.484885
-0.48566708 0.69432181 0.55604154 -0.494823 0.034079 0.868325
-0.51262850 0.77747220 0.52806956 -0.821007 0.015127 0.570717
-0.51246035 0.79492867 0.52774888 -0.820027 0.020673 0.571952
-0.67850566 1.18109250 0.01746880 -0.988793 0.085221 0.122578
-0.59782529 0.97345209 0.34205443 -0.937459 -0.011386 0.347910
-0.52667534 0.75296390 0.50719595 -0.883724 0.011996 0.467854
-0.57237035 0.91483432 0.40698647 -0.930982 -0.021890 0.364409
-0.61343408 1.03558660 0.29931754 -0.947295 0.016311 0.319947
-0.69146580 1.00187707 -0.00026112 -0.990268 0.035084 0.134677
-0.69816804 0.97258651 -0.05342840 -0.996490 0.037869 0.074656
-0.69855005 0.92421204 -0.13427675 -0.973503 -0.212062 0.085569
-0.69702691 0.90432268 -0.22605082 -0.998750 0.017668 -0.046768
-0.70353520 0.92891794 -0.34852344 -0.982440 -0.098123 0.158693
-0.69637972 0.85267639 -0.34633034 -0.993173 -0.082482 0.082482
-0.70022857 0.88851720 -0.35330337 -0.987329 -0.095777 0.126520
-0.67490345 0.29311943 -0.69975954 -0.925489 -0.008985 -0.378668
-0.66327119 -0.11798443 -0.71165609 -0.942798 -0.029264 -0.332079
-0.69771981 0.72404367 -0.60416710 -0.951209 -0.076356 0.298951
-0.69492817 0.56497467 -0.63996595 -0.981252 -0.008071 -0.192561
-0.68660986 0.56372571 -0.60826659 -0.951080 -0.070976 0.300681
-0.69175285 0.52698088 -0.65301353 -0.981707 -0.019750 -0.189371
-0.68533629 0.38341072 -0.67222983 -0.977761 -0.020051 -0.208762
-0.67908937 0.23766658 -0.68688041 -0.975798 -0.022582 -0.217504
-0.66650003 -0.08853624 -0.70405656 -0.975892 -0.029862 -0.216201
-0.68358946 0.67107254 -0.54293770 -0.992161 -0.112000 0.055434
-0.65756047 0.07897024 -0.63136995 -0.969821 -0.047817 0.239084
-0.49178433 0.92454165 0.54421180 -0.451719 0.039104 0.891303
-0.51517379 0.94644737 0.51806611 -0.818159 0.023534 0.574511
-0.69772846 0.95854807 -0.18619378 -0.998927 0.025933 -0.038380
-0.69367361 1.09268880 -0.09992220 -0.997970 0.063479 0.005203
-0.69516301 1.06619513 -0.07626865 -0.997349 0.071012 0.015898
-0.69544184 1.02094162 -0.19436356 -0.997692 0.048017 -0.048017
-0.64843822 0.46380395 -0.57069170 0.003518 -0.224001 0.974582
-0.66455799 0.53215462 -0.55331832 0.001225 -0.300017 0.953933
-0.66242504 0.69034636 -0.46308017 0.004141 -0.655660 0.755045
-0.58857459 0.95255071 0.27815598 -0.001273 -0.927860 -0.372926
-0.53842986 0.84607911 0.44555730 0.001377 -0.648407 -0.761293
-0.53216434 0.61647773 0.49469373 0.000997 -0.018940 -0.999820
-0.50996780 0.70424843 0.49298966 -0.000995 -0.018902 -0.999821
-0.55848366 0.08532945 0.41576928 0.001336 0.498295 -0.867007
-0.65180451 -0.22643130 -0.66344970 -0.999976 -0.000983 -0.006883
-0.62678283 -0.25018382 -0.66417778 0.001061 -0.090153 0.995927
-0.69556206 0.97365361 -0.28133756 -0.998755 0.017631 0.046671
-0.69880766 0.96883047 -0.30188754 -0.983689 -0.036174 0.176201
-0.69630760 0.95626801 -0.29026166 -0.986911 -0.033396 0.157768
-0.65147328 1.06833279 0.17319757 -0.963531 0.025776 0.266352
-0.65789187 1.30045307 0.08459567 -0.980361 0.088682 0.176149
-0.22952010 -0.74968314 -0.04330934 -0.977717 0.001160 -0.209925
-0.31396750 -0.72382671 -0.02676138 0.977717 0.001160 0.209925
-0.33666676 -0.68922329 0.00180472 0.977717 0.001160 0.209925
-0.33210170 -0.71639490 -0.02878285 -0.977717 0.001160 -0.209925
-0.39344513 -0.70057923 -0.04268947 0.977717 0.001160 0.209925
0.26798362 -0.70648557 -0.00207463 0.977717 0.001160 -0.209925
0.27377415 -0.73143142 -0.04313315 -0.977717 0.001160 0.209925
0.33169535 -0.70429152 -0.00955221 0.001381 -0.719425 0.694569
-0.18792546 -0.72495633 -0.01636746 -0.129389 -0.948406 0.289457
-0.41728386 -0.71027958 -0.04155622 0.025831 -0.032031 0.999153
0.26004258 -0.70638907 0.00163166 0.180397 -0.940544 0.287809
0.44756746 -0.67951012 -0.02385429 -0.154402 -0.884565 0.440118
0.23976851 -0.76656008 -0.04985273 0.136487 -0.709431 0.691433
0.30789533 -0.74871361 -0.04641721 0.176297 -0.703654 0.688324
0.31167492 -0.72994012 -0.04459197 -0.021481 -0.027619 0.999388
-0.22603804 -0.70992088 0.00131574 -0.048188 -0.248354 -0.967470
-0.02353079 -0.72128177 0.01986943 -0.020996 -0.718060 0.695664
-0.56414723 -0.61361164 -0.01091258 -0.442255 -0.629170 0.639183
-0.45665768 -0.66330492 -0.00468963 -0.258898 -0.687746 0.678216
-0.10510378 -0.72469950 0.01205343 -0.064933 -0.708495 0.702723
0.07807384 -0.71726394 0.02183023 0.058935 -0.717284 0.694284
-0.79919869 -0.16770892 0.12905094 0.274499 -0.072774 -0.958830
-0.84674364 -0.14807545 0.10118193 0.293079 0.955908 0.018549
-0.80084658 -0.21157040 0.09758897 -0.470303 -0.790304 0.392728
-0.79135615 -0.22015381 0.08532458 -0.488802 -0.872386 0.003996
-0.75407004 -0.23520400 0.09423586 -0.253665 -0.941195 0.223170
-0.75206697 -0.21164584 0.12981713 -0.150321 -0.552170 0.820069
0.67246246 -0.20284402 0.11374836 -0.769844 -0.238917 0.591827
0.76170504 -0.23260644 0.07426144 0.405611 -0.891760 -0.200609
0.56166571 1.42111588 0.07085615 0.884348 0.044967 -0.464657
0.54500705 1.41738927 0.10916105 -0.778473 0.029456 0.626986
0.54553878 1.43276429 -0.21467210 -0.421496 0.041481 -0.905881
-0.60849655 1.42641628 -0.08759059 0.057610 0.015712 0.998216
-0.63829470 1.34669340 0.13380364 -0.001098 0.130653 0.991428
-0.67509401 1.31298375 -0.06455079 0.004916 -0.999987 0.000983
-0.66692698 1.37616539 -0.18411574 -0.927569 0.262788 -0.265628
-0.66569859 1.40111077 -0.16287318 -0.900491 0.335651 -0.276505
-0.66628337 1.31815422 0.04064055 -0.986062 0.076759 0.147614
-0.65301096 1.39931691 -0.19274424 -0.727572 0.685996 -0.006929
-0.67899179 1.31471562 -0.09304615 -0.988638 0.141893 0.049605
-0.54032987 1.42791474 0.06293759 -0.097731 0.983345 0.153233
0.64438838 1.40871274 -0.01753621 0.727798 0.587774 0.353316
0.67595530 1.32881832 -0.20963576 0.991844 0.126877 0.012136
0.65390468 1.36977458 0.00760369 0.922233 0.363639 0.131352
0.66708446 1.36351800 -0.03352823 0.964656 0.045936 0.259476
0.67225748 1.33261204 -0.08061092 0.988423 0.144169 0.047287
0.66830426 1.36556029 -0.12056531 0.959147 0.104846 0.262762
0.56598973 1.42915273 0.02985912 0.201815 0.970998 0.128197
0.52656955 1.44097745 -0.05212985 0.063723 0.996886 0.046442
0.31417027 -0.97129077 -0.38473418 0.832674 -0.001354 -0.553762
-0.36973971 -0.95610940 -0.38879418 0.831835 0.004071 -0.555009
-0.31784835 -0.98547781 -0.43417063 -0.547504 0.001352 0.836802
-0.24096566 -0.99011898 -0.40198240 0.085252 -0.996050 0.024820
-0.17066073 -0.97528028 -0.41632736 0.722351 -0.670428 0.169516
-0.12803856 -1.00829542 -0.47220844 -0.036858 -0.992933 -0.112808
-0.08151373 -0.98491269 -0.45896122 0.005336 -0.092843 0.995666
0.16632295 -0.99041146 -0.45811614 -0.025366 -0.109185 0.993698
0.15813056 -1.00599706 -0.36955145 0.090810 -0.981956 0.165879
0.20181845 -0.99446428 -0.40989533 0.005213 -0.065688 0.997827
0.26237184 -0.99563253 -0.41705236 0.107317 -0.927815 -0.357270
0.13223200 -0.98333204 -0.40887460 0.003115 -0.063348 0.997987
0.05503194 -0.98620272 -0.42481011 0.001034 -0.061026 -0.998136
-0.02458117 -0.98585224 -0.42486057 -0.001034 -0.058965 -0.998260
-0.05539256 -0.99054158 -0.42455032 -0.001034 -0.061026 -0.998136
-0.20995700 -0.99444693 -0.34728953 -0.107426 -0.899867 0.422728
-0.39152113 -0.96776402 -0.45701641 -0.442029 -0.861274 -0.250635
-0.23638915 -0.99715197 -0.48492983 -0.114119 -0.919829 -0.375356
-0.13730872 -0.99684739 -0.49340639 -0.012857 0.000989 -0.999917
-0.07288588 -1.00840425 -0.48539358 -0.037008 -0.977740 -0.206531
-0.29473066 -0.98434466 -0.36584339 -0.170436 -0.985368 0.001129
0.37430277 -0.95673817 -0.34673429 0.000978 0.000978 0.999999
0.33528057 -0.98271567 -0.47144780 0.211220 -0.901690 -0.377282
0.33224037 -0.98467851 -0.46799299 0.186866 -0.937099 -0.294833
-0.19088157 1.43129194 -0.35753268 0.011016 0.285196 0.958406
-0.19403800 1.51076138 -0.48887056 0.013910 0.996140 0.086667
-0.11108405 1.51097798 -0.50734788 0.007103 0.999480 0.031456
-0.03203139 1.47368252 -0.38016033 0.001365 0.579946 0.814654
-0.06149163 1.50696039 -0.46455684 0.005356 0.995222 0.097487
-0.37574014 1.48361039 -0.38349095 0.015287 0.646240 0.762981
-0.43252021 1.51819563 -0.53597629 0.039804 0.999195 0.005103
-0.41681010 1.44033420 -0.35578930 0.028660 0.292827 0.955736
-0.41140035 1.50095940 -0.57896358 0.492923 0.071216 -0.867154
0.25753039 1.50835311 -0.44969124 -0.024245 0.984795 0.172022
0.26364446 1.51322973 -0.52317154 -0.012883 0.999917 0.000991
0.20758243 1.43814445 -0.35939407 -0.011042 0.285867 0.958206
0.16838783 1.51112580 -0.49635145 -0.013775 0.997071 0.075231
0.10178272 1.51030338 -0.49510688 -0.007443 0.996257 0.086123
0.15355030 1.51216424 -0.55808467 -0.002985 0.999884 -0.014924
0.29532284 1.50076461 -0.41197494 -0.021597 0.941378 0.336660
0.32470825 1.51449108 -0.52004737 -0.027180 0.999626 0.003020
0.37278512 1.50896275 -0.43889585 -0.010003 0.990252 0.138924
0.45277646 1.43914807 -0.35428345 -0.028728 0.293526 0.955519
0.07066673 1.50599325 -0.45626968 -0.005595 0.988161 0.153316
-0.63318485 -0.22162321 -0.65091938 -0.009072 -0.916268 -0.400462
-0.64422208 -0.23185574 -0.62628382 -0.008861 -0.935510 -0.353190
-0.67779607 -0.28671211 -0.44747478 0.003376 -0.986960 -0.160930
-0.66875207 -0.30492195 -0.12548044 0.001013 -0.999371 0.035439
0.65284532 -0.29960537 -0.35771430 -0.001073 -0.994789 -0.101947
0.66392928 -0.30730265 -0.22840828 0.000979 -0.999995 -0.002938
0.66459000 -0.30021393 -0.03565424 -0.003170 -0.996504 0.083482
-0.66716188 -0.05165312 -0.55406564 -0.992361 -0.001092 -0.123363
-0.67196536 0.07344738 -0.51631224 -0.993777 -0.001081 -0.111381
-0.66535032 0.08546538 -0.57089907 -0.992052 -0.003281 -0.125784
-0.66056389 0.03800275 -0.60611254 -0.990424 -0.003312 -0.138019
-0.67521995 0.20326874 -0.49010003 -0.994296 -0.001077 -0.106647
-0.65951169 0.16815042 -0.61571747 -0.990424 -0.003312 -0.138019
-0.66683841 0.32234806 -0.56458217 -0.991102 -0.001100 -0.133100
-0.68080682 0.44347799 -0.44189057 -0.995026 -0.001071 -0.099610
-0.68302530 0.61080682 -0.42193970 -0.995277 -0.001067 -0.097074
-0.67508310 0.52736962 -0.49863628 -0.993503 -0.003250 -0.113760
-0.68738776 0.69520259 -0.37036452 -0.996504 0.003170 -0.083482
-0.67980260 0.67410034 -0.45475012 -0.995256 0.001069 -0.097281
-0.66579258 -0.19991249 -0.56372738 -0.992394 0.001089 -0.123096
-0.65807027 -0.18502818 -0.61985415 -0.990764 -0.003306 -0.135555
-0.68058610 -0.17894365 -0.05084725 -0.993810 -0.014182 0.110181
-0.68094718 -0.03014153 -0.03743569 -0.993265 -0.014236 0.114987
-0.68110883 0.12035292 -0.02491756 -0.991844 -0.012136 0.126877
-0.67838407 0.42840537 0.01562718 -0.987621 -0.010135 0.156533
-0.67956233 0.28725320 -0.00157748 -0.990185 -0.012252 0.139227
-0.67634195 0.51294959 0.03436385 -0.985343 -0.012559 0.170123
-0.68231052 0.56412745 0.00163141 -0.987454 -0.014704 0.157223
-0.67705595 0.82697725 0.05349859 -0.982988 -0.012676 0.183230
-0.68180436 -0.29773852 -0.07696730 -0.994073 -0.014154 0.107791
-0.68874860 -0.12001661 -0.12757525 -0.996168 -0.011770 0.086670
-0.68552530 0.30262804 -0.04480316 -0.994447 -0.007575 0.104963
-0.68833238 0.41974607 -0.05923076 -0.992660 -0.014323 0.120089
-0.68897748 0.59710693 -0.04517131 -0.991095 -0.014460 0.132368
-0.69074398 0.75476217 -0.31393141 -0.998840 0.001024 -0.048149
-0.68072021 0.06957145 -0.43265480 -0.995480 -0.001067 -0.094960
-0.68215334 0.23670779 -0.42131910 -0.995698 -0.001065 -0.092648
-0.67970169 0.31228274 -0.44993567 -0.995694 -0.003195 -0.092647
-0.68691009 0.54718190 -0.37574399 -0.996315 -0.001059 -0.085761
-0.69462985 0.87035275 -0.19198404 -0.999940 -0.000989 -0.010880
-0.69467795 0.80378222 -0.18279862 -0.999917 -0.000989 -0.012857
-0.69146693 -0.22786751 -0.20774819 -0.999821 0.000995 -0.018902
-0.69128519 0.08923867 -0.13607895 -0.998195 -0.009368 0.059330
-0.68997133 0.12795669 -0.10795607 -0.997778 -0.009423 0.065960
-0.69288534 0.23392725 -0.18837160 -0.999912 -0.002979 -0.012908
-0.69029272 0.33044517 -0.08605060 -0.997145 -0.009497 0.074918
-0.69199699 0.31509840 -0.11254827 -0.997768 -0.009443 0.066098
-0.69380093 0.37696692 -0.13424748 -0.999956 -0.002961 -0.008884
-0.69355524 0.35531992 -0.16713570 -0.999948 -0.004945 -0.008902
-0.69357300 0.32583219 -0.14556734 -0.999991 -0.002950 -0.002950
-0.69484752 0.65016162 -0.10586604 -0.999995 -0.002944 -0.000981
-0.69450861 0.69012183 -0.09284195 -0.996572 -0.011699 0.081895
-0.69539636 0.84029806 -0.09045929 -0.999999 -0.000979 -0.000979
-0.68847483 0.84423113 -0.01529368 -0.990272 -0.007780 0.138927
-0.68441248 0.92523807 0.01903981 -0.989421 -0.012326 0.144547
-0.68261820 0.89343786 0.02822067 -0.982491 -0.012700 0.185877
-0.67730218 -0.16085924 -0.46523046 -0.994321 -0.001075 -0.106419
-0.69064111 -0.07334064 -0.24529520 -0.999505 -0.003032 -0.031329
-0.69020450 -0.28913617 -0.26251543 -0.999371 0.001013 -0.035439
-0.68171573 -0.19103229 -0.41695103 -0.997199 0.005254 -0.074606
-0.68055183 -0.13586609 -0.43286443 -0.997236 -0.001046 -0.074296
-0.68385798 -0.03460647 -0.38961273 -0.997384 -0.003140 -0.072214
-0.68597466 0.26175791 -0.37352028 -0.998116 -0.003116 -0.061279
-0.69302434 0.28399524 -0.19127159 -0.999852 -0.002991 -0.016947
-0.68595147 0.36641526 -0.38216069 -0.998099 -0.005204 -0.061405
-0.68729419 0.45503068 -0.36638504 -0.998366 -0.005173 -0.056902
-0.69340855 0.73338556 -0.24263446 -0.999685 -0.001003 -0.025067
-0.69290274 0.84350252 -0.26434857 -0.999686 0.001001 -0.025017
-0.68916357 -0.04663251 -0.29903623 -0.990155 -0.030484 0.136612
-0.69298136 0.03778561 -0.31445962 -0.998829 -0.013428 0.046481
-0.69199693 0.02843393 -0.33214182 -0.992612 0.005460 -0.121210
-0.69342452 0.22519948 -0.27832410 -0.990516 -0.021313 0.135733
-0.69420934 0.38126415 -0.25954100 -0.989449 -0.021436 0.143284
-0.69565076 0.36037832 -0.28057301 -0.999372 -0.011206 0.033618
-0.69741893 0.59990394 -0.25901401 -0.997110 -0.011631 0.075074
-0.69687927 0.62034070 -0.25450769 -0.997670 0.015803 0.066371
-0.69428337 0.65798193 -0.24026445 -0.992690 -0.001087 0.120688
-0.67580175 0.08019613 0.00806340 -0.984524 -0.010291 0.174950
-0.67518550 -0.20578136 -0.01344216 -0.989261 -0.016882 0.145182
-0.67790246 0.14977624 0.00109118 -0.984498 -0.012578 0.174946
-0.67010468 0.18872193 0.04663047 -0.982597 -0.010367 0.185461
-0.67074907 0.52449620 0.06346247 -0.979742 -0.015181 0.199685
-0.67231697 0.37577507 0.04672704 -0.982571 -0.012671 0.185456
-0.67267030 0.46435350 0.04998774 -0.979987 -0.010462 0.198787
-0.66498417 0.83047700 0.10744689 -0.970896 -0.018002 0.238824
0.65718645 -0.07279079 -0.60280293 0.990764 -0.003306 -0.135555
0.66156512 0.09449216 -0.57310581 0.992052 -0.003281 -0.125784
0.65547758 0.12562262 -0.61864090 0.990424 -0.003312 -0.138019
0.67014265 0.12853935 -0.50201893 0.993746 -0.003251 -0.111620
0.65902644 0.19041269 -0.59415138 0.990769 -0.001102 -0.135556
0.66662115 0.34187067 -0.53780419 0.993231 -0.001085 -0.116148
0.66062415 0.27983823 -0.58371300 0.990769 -0.001102 -0.135556
0.68156987 0.70865393 -0.39756703 0.996504 0.003170 -0.083482
0.68506265 0.77228695 -0.35189155 0.996669 0.005285 -0.081382
0.67906517 -0.06865745 -0.05589506 0.993294 -0.012047 0.114990
0.68040240 0.00562729 -0.05894270 0.993265 -0.014236 0.114987
0.67825603 0.17628346 -0.02514587 0.991844 -0.012136 0.126877
0.67928576 0.36028951 -0.01855101 0.990185 -0.012252 0.139227
0.67444694 0.80711627 0.04716673 0.982988 -0.012676 0.183230
0.67673206 0.76884174 0.03161324 0.985245 -0.014876 0.170501
0.68524247 -0.09329679 -0.12401599 0.996168 -0.011770 0.086670
0.68452471 -0.03770523 -0.10851402 0.996207 -0.009610 0.086487
0.68522996 0.02254057 -0.10819744 0.995555 -0.011813 0.093434
0.68135613 0.21021800 -0.04656343 0.995634 -0.007486 0.093040
0.68608439 0.13540286 -0.10271106 0.994381 -0.011928 0.105185
0.68394655 0.71696138 -0.02124248 0.991203 -0.012182 0.131791
0.68112177 0.82767785 0.00986374 0.990067 -0.014543 0.139840
0.67152554 -0.22787863 -0.48879302 0.994035 0.003238 -0.109009
0.67254007 -0.03018658 -0.47736070 0.995000 -0.003220 -0.099822
0.67713684 -0.00950564 -0.43226179 0.995480 -0.001067 -0.094960
0.68158662 0.56279254 -0.39700490 0.996315 -0.001059 -0.085761
0.69133258 0.82228613 -0.16882342 0.999917 -0.000989 -0.012857
0.68696058 -0.24230990 -0.17617106 0.998340 -0.007272 0.057137
0.68555683 -0.17774743 -0.14144072 0.998323 -0.009350 0.057136
0.68683285 0.00951628 -0.13287431 0.998195 -0.009368 0.059330
0.68811172 -0.01677799 -0.21545158 0.999852 -0.002985 -0.016913
0.68710041 0.20001328 -0.10831115 0.997778 -0.009423 0.065960
0.68923151 0.20951855 -0.19062485 0.999912 -0.002979 -0.012908
0.68810809 0.46771753 -0.08710094 0.997145 -0.009497 0.074918
0.68966347 0.27563736 -0.17048265 0.999948 -0.004945 -0.008902
0.69032586 0.41358781 -0.15662597 0.999991 -0.002950 -0.002950
0.68737048 0.65915543 -0.05297829 0.996595 -0.009572 0.081897
0.69108403 0.78585565 -0.08140773 0.996572 -0.011699 0.081895
0.69156682 0.73266125 -0.11718631 0.999995 -0.002938 -0.000979
0.67528290 0.91067874 0.04954212 0.982491 -0.012700 0.185877
0.67283893 -0.16551295 -0.47400227 0.994321 -0.001075 -0.106419
0.67330176 -0.07810815 -0.47006756 0.995026 0.001071 -0.099610
0.68124878 -0.18766755 -0.37584910 0.997236 -0.001046 -0.074296
0.68801779 -0.00335537 -0.22076650 0.999632 -0.001005 -0.027126
0.68708700 -0.04161555 -0.24920732 0.999505 -0.003032 -0.031329
0.68036526 0.04079235 -0.39285797 0.997844 -0.003122 -0.065552
0.68803072 0.16996080 -0.23844874 0.999618 -0.005033 -0.027180
0.68178821 0.17301883 -0.37836221 0.997827 -0.005213 -0.065688
0.68932414 0.29786688 -0.20227936 0.999766 -0.005014 -0.021058
0.68950862 0.51721340 -0.23649889 0.999852 -0.002991 -0.016947
0.68502283 0.52252603 -0.34951103 0.998619 -0.003085 -0.052451
0.69052595 0.56427521 -0.18034841 0.999852 -0.002985 -0.016913
0.69062001 0.58602709 -0.17916103 0.999885 -0.002979 -0.014894
0.68567419 0.64064330 -0.34385195 0.998619 -0.003085 -0.052451
0.68718421 0.63494658 -0.31345561 0.998840 -0.001024 -0.048149
0.69090945 0.64924622 -0.17305554 0.999889 -0.000993 -0.014894
0.69074339 0.83112133 -0.20921797 0.999686 0.001001 -0.025017
0.69103819 0.76201946 -0.18743040 0.999936 -0.002973 -0.010901
0.68789560 -0.01407489 -0.30589646 0.982678 -0.029142 0.183014
0.68968809 0.23388194 -0.27551526 0.989858 -0.021348 0.140445
0.69253373 0.38911757 -0.28284094 0.999372 -0.011206 0.033618
0.69156283 0.32856002 -0.27503970 0.999369 -0.011229 0.033687
0.69110614 0.64646018 -0.24320744 0.992690 -0.001087 0.120688
0.68366474 -0.16975525 -0.34467694 0.997075 -0.026717 -0.071601
0.68718272 0.11499724 -0.31301096 0.999496 -0.005053 -0.031329
0.69204319 0.48587319 -0.27894294 0.001073 -0.104070 0.994569
0.69072527 0.55985326 -0.26864234 0.999496 -0.005053 -0.031329
0.67507190 -0.07565508 -0.02281300 0.987304 -0.017042 0.157923
0.67374146 -0.19655779 -0.02656018 0.989261 -0.016882 0.145182
0.66897821 0.58327401 0.05933423 0.979742 -0.015181 0.199685
0.66626829 0.36633533 0.05874403 0.979987 -0.010462 0.198787
0.66589135 0.76864839 0.08461190 0.970896 -0.018002 0.238824
-0.05086865 -1.00116372 -0.49808764 -0.008867 -0.999960 -0.000985
-0.10129483 -1.01689076 -0.56897902 -0.025168 -0.999658 0.007047
-0.11659551 -1.01545227 -0.61231667 0.000978 0.000978 -0.999999
0.19644865 -1.01011086 -0.53196216 0.080806 -0.995130 0.056453
0.14325477 -1.00794935 -0.51356620 0.045820 -0.930804 0.362634
0.04033274 -1.01669180 -0.53945076 0.007173 -0.999091 0.042013
-0.72935462 0.92191643 -0.43947610 0.001383 0.728889 -0.684630
-0.49787989 1.48855197 -0.67201442 -0.005387 -0.994509 -0.104515
-0.57901025 1.44372129 -0.29409653 -0.081783 0.929109 0.360650
-0.57656687 1.51457942 -0.49462113 -0.099279 0.993903 0.047966
-0.59974808 1.51234138 -0.55248737 -0.094831 0.995178 -0.025070
-0.70267671 1.41737115 -0.33850357 -0.615555 0.585198 0.527859
-0.65788603 1.46601760 -0.36691484 -0.251833 0.850126 0.462456
-0.74814212 1.29157686 -0.33700931 -0.770686 0.242305 0.589348
-0.74008590 1.31198132 -0.33493492 -0.757616 0.334385 0.560539
-0.73979181 1.42547691 -0.41786867 -0.849891 0.469796 0.238699
-0.74020451 1.41342187 -0.39785376 -0.920608 0.331533 0.206319
-0.69069636 1.27257597 -0.26490742 -0.852038 0.017666 0.523181
-0.74368691 1.21974730 -0.31759337 -0.620723 0.119997 0.774793
-0.72398245 1.22814620 -0.30245617 -0.622525 0.064399 0.779945
-0.72146589 0.84706426 -0.55071998 -0.990417 -0.014516 -0.137341
-0.71573448 0.99446881 -0.33786246 -0.704983 -0.311354 0.637227
-0.70711279 1.05930233 -0.30314386 -0.816745 -0.147282 0.557886
-0.75433660 1.28819478 -0.34494480 -0.999844 0.016947 -0.004984
0.65082598 1.48478103 -0.64398295 0.005650 -0.986470 -0.163847
0.69699389 1.08376539 -0.28609732 0.955037 -0.016103 0.296049
0.70749211 0.84599322 -0.47997987 0.879072 -0.428418 0.209021
0.71085340 0.82969856 -0.53647417 0.804037 -0.568709 0.173479
0.57577330 1.45374155 -0.31934685 0.038195 0.920640 0.388539
0.50768179 1.51807368 -0.48808026 -0.003085 0.998619 0.052451
0.51061249 1.51299524 -0.45114297 0.012676 0.982988 0.183230
0.51874334 1.51471460 -0.60569155 0.024630 0.996962 -0.073889
0.63540190 1.43325794 -0.29636928 0.356793 0.834614 0.419665
0.70794350 1.41538846 -0.34831235 0.713587 0.457428 0.530616
0.73464972 1.31597340 -0.33473825 0.757616 0.334385 0.560539
0.74203545 1.44080245 -0.47209486 0.772156 0.547412 0.322668
0.69258285 1.21005213 -0.27208152 0.852716 0.001343 0.522373
0.72544020 1.26363194 -0.31137440 0.728854 0.110880 0.675631
0.54450798 1.50264955 -0.68219501 0.039465 0.977058 -0.209284
0.71778250 0.84333718 -0.55142957 0.990417 -0.014516 -0.137341
0.74711722 1.09494150 -0.34393695 0.998783 -0.048445 -0.009277
0.72159588 1.02425969 -0.33331493 0.621803 -0.344358 0.703405
0.71956003 0.98531049 -0.35056937 0.709495 -0.311919 0.631920
0.75036186 1.31189466 -0.36523390 0.999507 0.031266 0.003026
0.53041232 1.41745794 -0.32810035 -0.770372 0.101249 0.629504
0.47909388 1.44509125 -0.35490298 -0.051470 0.376126 0.925138
0.47501481 1.51649582 -0.47184017 -0.029046 0.984062 0.175435
0.52782160 1.50066042 -0.68494672 0.139426 0.096526 -0.985517
0.45584446 1.42792487 0.07163595 -0.000978 -0.000978 0.999999
0.06528462 1.44721293 0.07183292 -0.000978 -0.000978 0.999999
-0.26238042 1.45332980 0.03945811 -0.036058 0.995423 0.088506
