0.82090509 1.09915745 -0.18431450 0.001326 0.481358 -0.876523
0.57981014 1.48242211 -0.20447008 0.999995 -0.002938 0.000979
0.57911718 1.26372743 -0.24849977 0.999995 -0.002938 0.000979
0.57871294 1.13613260 -0.19883659 0.999995 -0.002938 0.000979
0.91582644 1.48531163 -0.18064541 0.012141 -0.511280 -0.859328
0.85677385 1.55051899 -0.22942814 0.015351 -0.671273 -0.741051
0.82358152 1.50209653 -0.19449836 0.012266 -0.541061 -0.840894
0.73680466 1.52016723 -0.20920242 0.012358 -0.572589 -0.819750
0.81783926 1.12325585 -0.17235586 0.001297 0.416342 -0.909207
0.66304749 1.17504203 -0.15338255 0.001227 0.302950 -0.953006
0.88958246 1.18957222 -0.14774889 0.001193 0.251790 -0.967781
0.67720550 1.20312691 -0.14298020 0.001170 0.223492 -0.974705
0.57966387 1.43627667 -0.17001905 0.999995 -0.002938 0.000979
0.92631978 1.37985015 -0.14622803 0.005929 -0.238344 -0.971163
0.87373704 1.43607318 -0.16318184 0.008951 -0.374681 -0.927111
0.70739841 1.38737702 -0.14990850 0.005922 -0.233324 -0.972381
0.83022863 1.34958148 -0.13792913 0.003362 -0.158033 -0.987428
0.64345533 1.27822280 -0.13551684 0.003008 0.025067 -0.999681
0.85931659 1.32029712 -0.13537911 0.003164 -0.081212 -0.996692
0.77436972 1.27119768 -0.13554884 0.001026 0.050296 -0.998734
0.93029487 1.33030105 -0.13534492 0.003239 -0.106876 -0.994267
0.00300510 -0.76088488 -0.63438565 0.000983 0.006883 -0.999976
-0.14350303 -0.74848884 -0.63438565 0.000985 0.006896 -0.999976
-0.06589981 -0.76956403 -0.63438565 0.000983 0.004916 -0.999987
0.01200674 -1.19145489 -0.63777190 0.000981 0.004907 -0.999987
-0.12517841 -1.04374945 -0.63648903 0.000981 0.004907 -0.999987
0.00172561 -0.94554037 -0.63563013 0.000981 0.002944 -0.999995
-0.02473924 -0.98823452 -0.63600272 0.000981 0.004907 -0.999987
0.02661185 -1.45253110 -0.64004558 0.000981 0.004907 -0.999987
0.02274385 -0.83188874 -0.63463962 0.000981 0.002944 -0.999995
0.03330493 -1.18378103 -0.63770443 0.000981 0.004907 -0.999987
-0.01423413 -0.97215283 -0.63586241 0.000981 0.002944 -0.999995
-0.08072514 -0.95877093 -0.63574761 0.000981 0.004907 -0.999987
-0.06071404 -1.23692226 -0.63816988 0.000981 0.004907 -0.999987
-0.11553194 -1.19839454 -0.63783580 0.000981 0.004907 -0.999987
-0.09991648 -1.28678882 -0.63860530 0.000981 0.004907 -0.999987
-0.06156421 -1.51975620 -0.64063352 0.000981 0.004907 -0.999987
-0.16139406 -1.13133502 -0.63725293 0.000981 0.004907 -0.999987
-0.09345511 -1.41284335 -0.63970309 0.000981 0.004907 -0.999987
-0.09640450 -1.41729951 -0.63974202 0.000981 0.004907 -0.999987
-0.20986696 -1.29798150 -0.63870579 0.000981 0.004907 -0.999987
-0.12380705 -1.35105050 -0.63916570 0.000981 0.004907 -0.999987
-0.19411117 -0.98679167 -0.63599473 0.000981 0.004907 -0.999987
-0.08380581 -1.36832631 -0.63931507 0.000981 0.004907 -0.999987
0.04414007 -1.59029496 -0.64117289 0.000981 0.004907 -0.999987
-0.01002338 -1.89295828 -0.64117289 -0.000978 -0.000978 -0.999999
-0.10500541 -1.87330008 -0.64117289 -0.000978 -0.000978 -0.999999
0.00176309 -1.86922216 -0.64117289 -0.000978 0.000978 -0.999999
-0.21187851 -1.59907818 -0.64117289 0.000981 0.004907 -0.999987
-0.11169257 -1.70711350 -0.64117289 0.000979 0.002938 -0.999995
-0.12853643 -1.74792540 -0.64117289 0.000979 0.002938 -0.999995
-0.11510780 -1.73741913 -0.64117289 0.000979 0.002938 -0.999995
-0.06884857 -1.61359167 -0.64117289 0.000981 0.004907 -0.999987
-0.66446000 -1.68169069 -0.64117289 -0.000978 -0.000978 -0.999999
-0.58456218 -1.73500502 -0.64117289 -0.000978 -0.000978 -0.999999
-0.57561624 -1.61138046 -0.64117289 0.000978 0.000978 -0.999999
-0.60137290 -1.64080060 -0.64117289 -0.000978 0.000978 -0.999999
-0.65910584 -0.78210527 -0.63438565 0.000979 0.002938 -0.999995
-0.67310631 -0.78354192 -0.63438565 0.000979 0.002938 -0.999995
-0.61090136 -0.71453124 -0.63438565 0.000987 0.008884 -0.999960
-0.45555142 -0.67249191 -0.63383073 0.000987 0.008884 -0.999960
-0.37064496 -0.61411190 -0.63265723 0.000987 0.010858 -0.999941
-0.46757272 -0.11468498 -0.62266934 0.000993 0.016879 -0.999857
-0.47215697 0.05400952 -0.61929393 0.000995 0.018902 -0.999821
-0.45660171 0.08959141 -0.61858094 0.000997 0.018940 -0.999820
-0.46820050 -0.57198876 -0.63182038 0.000987 0.010858 -0.999941
-0.43701881 -0.35188735 -0.62741405 0.000991 0.012883 -0.999917
-0.41395783 -0.02082650 -0.62078786 0.000995 0.018902 -0.999821
-0.28749558 -0.65943927 -0.63355911 0.000987 0.010858 -0.999941
-0.47540730 -0.05282788 -0.62143207 0.000995 0.016913 -0.999856
-0.35680044 -0.49601346 -0.63029313 0.000989 0.012857 -0.999917
-0.33798400 -0.30156100 -0.62640083 0.000993 0.014894 -0.999889
-0.29854056 0.01494321 -0.62006491 0.000995 0.018902 -0.999821
-0.29635593 -0.28435090 -0.62605387 0.000993 0.014894 -0.999889
-0.26166433 -0.16723832 -0.62370819 0.000993 0.016879 -0.999857
-0.23533013 -0.40355429 -0.62843537 0.000991 0.014865 -0.999889
-0.27494836 -0.20567693 -0.62447822 0.000993 0.016879 -0.999857
-0.44266275 0.15369500 -0.61729735 0.000997 0.020933 -0.999780
-0.30447882 -0.18918476 -0.62415004 0.000993 0.016879 -0.999857
-0.21613735 -0.04939713 -0.62134725 0.000995 0.018902 -0.999821
-0.35947654 -0.13613668 -0.62309188 0.000995 0.016913 -0.999856
-0.35194635 0.04794700 -0.61940777 0.000997 0.018940 -0.999820
-0.29857576 -0.10595769 -0.62248421 0.000995 0.016913 -0.999856
-0.23951390 -0.53950518 -0.63115615 0.000989 0.012857 -0.999917
-0.70630270 -0.00052364 -0.62039977 0.000995 0.018902 -0.999821
-0.57814091 0.05914296 -0.61919785 0.000997 0.018940 -0.999820
-0.64023513 -0.16359900 -0.62365890 0.000993 0.016879 -0.999857
-0.75018674 -0.64862198 -0.63337141 0.000989 0.010880 -0.999940
-0.75496489 -0.66691172 -0.63373768 0.000989 0.010880 -0.999940
-0.72209060 -0.27956474 -0.62598455 0.000993 0.014894 -0.999889
-0.65150112 0.03090599 -0.61976743 0.000995 0.018902 -0.999821
-0.65092641 -0.05311701 -0.62144876 0.000995 0.018902 -0.999821
-0.65481716 -0.17974736 -0.62398297 0.000993 0.016879 -0.999857
-0.65266103 -0.24822812 -0.62535316 0.000993 0.014894 -0.999889
-0.73659217 -0.21182722 -0.62462997 0.000993 0.016879 -0.999857
-0.68917578 -0.24770485 -0.62534499 0.000993 0.014894 -0.999889
-0.63265878 -0.09491578 -0.62228405 0.000995 0.016913 -0.999856
-0.58702719 -0.34189343 -0.62722337 0.000991 0.014865 -0.999889
-0.55048835 -0.42665979 -0.62891734 0.000991 0.012883 -0.999917
-0.65117985 -0.53012753 -0.63099408 0.000989 0.012857 -0.999917
-0.55536306 -0.49952212 -0.63037568 0.000989 0.012857 -0.999917
-0.70591104 -0.57197046 -0.63183481 0.000989 0.012857 -0.999917
-0.52944750 -0.06040484 -0.62158704 0.000995 0.016913 -0.999856
-0.64662218 -0.51598889 -0.63071090 0.000989 0.012857 -0.999917
-0.68787009 -0.57999164 -0.63199419 0.000989 0.012857 -0.999917
-0.56597149 -0.43907511 -0.62916678 0.000991 0.012883 -0.999917
-0.61339647 -0.41615129 -0.62871099 0.000991 0.012883 -0.999917
-0.54945469 -0.04969341 -0.62137395 0.000995 0.018902 -0.999821
-0.51899344 0.05258200 -0.61932540 0.000997 0.018940 -0.999820
-0.64895606 -0.62842941 -0.63296103 0.000989 0.010880 -0.999940
-0.43178052 0.23367693 -0.61567968 0.000997 0.020933 -0.999780
-0.46874434 0.46398208 -0.61083388 0.000997 0.018940 -0.999820
-0.43548420 0.38736734 -0.61244452 0.000997 0.018940 -0.999820
-0.40548378 0.46476814 -0.61081320 0.000997 0.018940 -0.999820
-0.42529005 0.51102525 -0.60984069 0.000995 0.018902 -0.999821
-0.34942487 0.26817834 -0.61494803 0.000997 0.020933 -0.999780
-0.41889757 0.57325333 -0.60853028 0.000995 0.018902 -0.999821
-0.40701705 0.66301864 -0.60663980 0.000995 0.016913 -0.999856
-0.33056813 0.54264009 -0.60916889 0.000995 0.018902 -0.999821
-0.23211357 0.58223325 -0.60832882 0.000993 0.014894 -0.999889
-0.33281147 0.52227449 -0.60959780 0.000995 0.018902 -0.999821
-0.29630220 0.54690969 -0.60907680 0.000995 0.016913 -0.999856
-0.42184484 0.70862210 -0.60568070 0.000993 0.016879 -0.999857
-0.32638660 0.64145732 -0.60708833 0.000993 0.016879 -0.999857
-0.22247370 0.25978580 -0.61511636 0.000997 0.020933 -0.999780
-0.48495081 0.75299692 -0.60475075 0.000993 0.016879 -0.999857
-0.68259859 0.74849224 -0.60485852 0.000989 0.012857 -0.999917
-0.65655190 0.65411359 -0.60684359 0.000993 0.014894 -0.999889
-0.63657451 0.63079035 -0.60733330 0.000993 0.014894 -0.999889
-0.68630874 0.42474228 -0.61167413 0.000995 0.018902 -0.999821
-0.64439207 0.73206955 -0.60520172 0.000991 0.012883 -0.999917
-0.70862657 0.34535474 -0.61334682 0.000997 0.018940 -0.999820
-0.61332297 0.36986324 -0.61282468 0.000997 0.018940 -0.999820
-0.56441027 0.35921106 -0.61304569 0.000997 0.018940 -0.999820
-0.49233612 0.66475624 -0.60660881 0.000995 0.016913 -0.999856
-0.65356416 0.33917025 -0.61347342 0.000997 0.020933 -0.999780
-0.56795961 0.46429929 -0.61083370 0.000997 0.018940 -0.999820
-0.63791674 0.43922061 -0.61136621 0.000997 0.018940 -0.999820
-0.56990808 0.35533828 -0.61312759 0.000997 0.018940 -0.999820
-0.66222346 0.35787708 -0.61308020 0.000997 0.018940 -0.999820
-0.45945606 0.85913378 -0.60389286 0.001003 0.025067 -0.999685
-0.36277312 0.86255085 -0.60386825 0.001003 0.027071 -0.999633
-0.24546809 0.82204229 -0.60413319 0.001001 0.023017 -0.999735
-0.75397456 0.86412984 -0.60386592 0.000985 0.008867 -0.999960
-0.62347645 0.82819796 -0.60410047 0.000997 0.018940 -0.999820
-0.50138056 0.82248634 -0.60413569 0.000999 0.020974 -0.999780
-0.61984545 0.80453467 -0.60425663 0.000995 0.016913 -0.999856
-0.23039679 1.54084778 -0.51347989 -0.249695 0.179510 -0.951540
-0.25679615 1.64922464 -0.48608565 -0.130955 0.170866 -0.976553
-0.24235784 1.75591493 -0.47380027 -0.350982 0.081406 -0.932837
-0.23165447 -0.77399135 -0.63438565 0.000983 0.006883 -0.999976
-0.32642898 -0.78744102 -0.63438565 0.000983 0.004916 -0.999987
-0.41504121 -0.97933209 -0.63593578 0.000981 0.002944 -0.999995
-0.23291358 -1.35719538 -0.63922215 0.000981 0.004907 -0.999987
-0.23896280 -0.89988482 -0.63523901 0.000981 0.004907 -0.999987
-0.28793442 -0.81927806 -0.63453817 0.000981 0.004907 -0.999987
-0.28598493 -1.22454929 -0.63806820 0.000981 0.004907 -0.999987
-0.26081491 -1.37063086 -0.63933998 0.000981 0.004907 -0.999987
-0.22967914 -1.12469614 -0.63719690 0.000981 0.004907 -0.999987
-0.35682541 -0.96903861 -0.63584453 0.000981 0.002944 -0.999995
-0.31975597 -1.11337674 -0.63710076 0.000981 0.004907 -0.999987
-0.34949523 -0.86315435 -0.63492203 0.000981 0.002944 -0.999995
-0.39036027 -1.01441729 -0.63624072 0.000981 0.002944 -0.999995
-0.39123425 -1.19411790 -0.63780600 0.000981 0.002944 -0.999995
-0.36888164 -1.35635793 -0.63921857 0.000981 0.002944 -0.999995
-0.39315182 -1.54778624 -0.64088660 0.000981 0.002944 -0.999995
-0.37991041 -1.49370205 -0.64041519 0.000981 0.002944 -0.999995
-0.41565150 -0.99977672 -0.63611388 0.000981 0.002944 -0.999995
-0.39815956 -1.16120243 -0.63751948 0.000981 0.002944 -0.999995
-0.43806878 -1.19600630 -0.63782370 0.000981 0.002944 -0.999995
-0.41786814 -1.42470336 -0.63981521 0.000981 0.002944 -0.999995
-0.46661651 -1.50437915 -0.64051050 0.000981 0.002944 -0.999995
-0.42336670 -0.98964423 -0.63602579 0.000981 0.002944 -0.999995
-0.43432912 -1.32618380 -0.63895750 0.000981 0.002944 -0.999995
-0.31541565 -1.86778390 -0.64117289 -0.000978 -0.000978 -0.999999
-0.39722234 -1.88736629 -0.64117289 -0.000978 -0.000978 -0.999999
-0.44909474 -1.86928868 -0.64117289 -0.000978 -0.000978 -0.999999
-0.22321726 -1.90508151 -0.64117289 -0.000978 -0.000978 -0.999999
-0.25160536 -1.62127686 -0.64117289 0.000981 0.004907 -0.999987
-0.46449262 -1.81311548 -0.64117289 -0.000978 -0.000978 -0.999999
-0.30703017 -1.64125609 -0.64117289 0.000981 0.002944 -0.999995
-0.37381324 -1.60544944 -0.64117289 0.000981 0.002944 -0.999995
-0.28288075 -1.62886441 -0.64117289 0.000981 0.002944 -0.999995
-0.09160751 -0.69226295 -0.63420373 0.000989 0.012857 -0.999917
-0.16921455 -0.54918849 -0.63134551 0.000991 0.012883 -0.999917
-0.07856356 -0.67080605 -0.63377357 0.000989 0.012857 -0.999917
-0.17756993 -0.07223727 -0.62180191 0.000995 0.018902 -0.999821
-0.04922435 -0.51604867 -0.63067490 0.000991 0.014865 -0.999889
-0.06956484 -0.53933847 -0.63114226 0.000991 0.012883 -0.999917
-0.13527320 -0.63164252 -0.63299340 0.000989 0.012857 -0.999917
-0.06763026 -0.65810668 -0.63351876 0.000989 0.012857 -0.999917
-0.05291931 -0.63832235 -0.63312191 0.000989 0.012857 -0.999917
-0.15542606 -0.39631823 -0.62828565 0.000991 0.014865 -0.999889
-0.12587784 -0.61033088 -0.63256633 0.000989 0.012857 -0.999917
-0.20768429 -0.20957865 -0.62455207 0.000993 0.016879 -0.999857
-0.08033642 -0.35361075 -0.62742639 0.000993 0.014894 -0.999889
-0.05180385 -0.07986525 -0.62194675 0.000995 0.018902 -0.999821
0.01400124 -0.51211280 -0.63059223 0.000991 0.014865 -0.999889
-0.06880797 -0.23148312 -0.62498176 0.000995 0.016913 -0.999856
0.03918548 0.16372027 -0.61706674 0.000997 0.020933 -0.999780
-0.14508338 0.14675693 -0.61741769 0.000997 0.020933 -0.999780
0.03138478 -0.20903978 -0.62452644 0.000995 0.016913 -0.999856
-0.02176466 0.20533797 -0.61623776 0.000997 0.020933 -0.999780
-0.03863522 -0.32970801 -0.62694544 0.000993 0.016879 -0.999857
0.04370560 -0.56065917 -0.63156182 0.000991 0.014865 -0.999889
-0.09127331 -0.18458635 -0.62404472 0.000995 0.016913 -0.999856
-0.17248157 0.19734605 -0.61640704 0.000997 0.020933 -0.999780
-0.04931827 -0.24687748 -0.62528861 0.000993 0.016879 -0.999857
0.03115412 -0.38384587 -0.62802446 0.000993 0.014894 -0.999889
-0.11023963 0.31171390 -0.61401582 0.000997 0.018940 -0.999820
-0.17833225 0.56437784 -0.60870117 0.000993 0.014894 -0.999889
-0.20375408 0.36694899 -0.61285913 0.000995 0.018902 -0.999821
-0.19369158 0.61321121 -0.60767418 0.000993 0.014894 -0.999889
-0.01040770 0.23692092 -0.61558384 0.000997 0.020933 -0.999780
-0.06659184 0.42104667 -0.61171132 0.000995 0.018902 -0.999821
-0.17660297 0.67003083 -0.60647690 0.000991 0.014865 -0.999889
-0.02440043 0.30403721 -0.61417180 0.000997 0.018940 -0.999820
-0.00182160 0.44409162 -0.61122191 0.000995 0.016913 -0.999856
0.02835706 0.40708667 -0.61199898 0.000995 0.016913 -0.999856
-0.08235772 0.74281865 -0.60493839 0.000989 0.012857 -0.999917
-0.10489585 0.57947862 -0.60837847 0.000993 0.014894 -0.999889
-0.01868290 0.74475539 -0.60489345 0.000989 0.010880 -0.999940
-0.03682962 0.71983045 -0.60541934 0.000989 0.012857 -0.999917
-0.15162103 0.68921453 -0.60607141 0.000991 0.012883 -0.999917
-0.12691079 0.81921601 -0.60414940 0.001001 0.023017 -0.999735
-0.19128127 0.86336327 -0.60385936 0.001011 0.033348 -0.999443
0.01250331 0.88187885 -0.60373294 0.001020 0.045917 -0.998945
-0.04407654 0.84806228 -0.60395730 0.001009 0.033281 -0.999445
-0.16772442 1.55967021 -0.53964323 -0.334337 0.066867 -0.940078
-0.16228858 1.40600109 -0.55701882 -0.229188 0.113954 -0.966689
-0.19060300 1.40103626 -0.54203135 -0.152024 0.211794 -0.965418
-0.20789583 1.68878388 -0.49366212 -0.453344 0.067519 -0.888775
-0.47910225 -0.87497342 -0.60972810 -0.999995 0.002938 0.000979
-0.47933218 -0.94753981 -0.61788088 -0.999995 0.002938 0.000979
-0.67371321 -1.57977796 -0.62467337 0.002973 0.999936 -0.010901
-0.49106124 -1.58034563 -0.62508219 0.002961 0.999972 -0.006910
-0.48062155 -1.35448277 -0.57671350 -0.999995 0.002938 0.000979
-0.48091522 -1.44716823 -0.49857408 -0.999995 0.002938 0.000979
-0.48102567 -1.48202109 -0.58523291 -0.999995 0.002938 0.000979
-0.48033667 -1.26458991 -0.49798825 -0.999995 0.002938 0.000979
-0.48075286 -1.39591730 -0.59706044 -0.999995 0.002938 0.000979
-0.48052424 -1.32377672 -0.57234401 -0.999995 0.002938 0.000979
-0.48005584 -1.17595005 -0.56072539 -0.999995 0.002938 0.000979
-0.48065400 -1.36473238 -0.57913709 -0.999995 0.002938 0.000979
-0.74700153 -1.57905209 -0.60051131 0.003038 0.999437 -0.033416
-0.62023950 -1.57615364 -0.51251656 0.003214 0.995232 -0.097488
-0.64630485 -1.57862473 -0.58072805 0.003062 0.999120 -0.041843
-0.55720514 -1.57717764 -0.53464812 0.003134 0.997687 -0.067905
-0.80838239 -0.80270171 -0.49026531 -0.003220 -0.995000 -0.099822
-0.67207265 -0.80237341 -0.52464163 -0.003170 -0.996504 -0.083482
-0.82021612 -0.80174488 -0.53232777 -0.003122 -0.997844 -0.065552
-0.68400109 -0.80077362 -0.59608281 -0.002990 -0.999816 -0.018940
-0.48066232 -1.36734903 -0.45533121 -0.999995 0.002938 0.000979
-0.48078254 -1.40525723 -0.39052540 -0.999995 0.002938 0.000979
-0.48059204 -1.34514892 -0.39433590 -0.999995 0.002938 0.000979
-0.48026618 -1.24234045 -0.42960426 -0.999995 0.002938 0.000979
-0.47946969 -0.99098200 -0.44935718 -0.999995 0.002938 0.000979
-0.48002979 -1.16774344 -0.48191494 -0.999995 0.002938 0.000979
-0.47921148 -0.90950221 -0.46588370 -0.999995 0.002938 0.000979
-0.47947991 -0.99420571 -0.47210610 -0.999995 0.002938 0.000979
-0.47914392 -0.88818568 -0.46588466 -0.999995 0.002938 0.000979
-0.65206420 -1.56010652 -0.42061883 0.003600 0.966129 -0.258034
-0.78432488 -1.55870032 -0.41584376 0.003697 0.952546 -0.304371
-0.64378554 -1.56416440 -0.43996423 0.003508 0.976318 -0.216310
-0.51769435 -1.56640315 -0.44882491 0.003420 0.983846 -0.178985
-0.71350223 -0.82817513 -0.38994938 -0.003746 -0.942776 -0.333406
-0.55493754 -0.82014275 -0.42289835 -0.003682 -0.953706 -0.300718
-0.71999305 -0.82234210 -0.41241524 -0.003647 -0.959049 -0.283217
-0.80907887 -0.80611163 -0.47407436 -0.003301 -0.991385 -0.130938
-0.47993013 -1.13621819 -0.31080699 -0.999995 0.002938 0.000979
-0.48076546 -1.39982569 -0.30166945 -0.999995 0.002938 0.000979
-0.48031625 -1.25807381 -0.32318655 -0.999995 0.002938 0.000979
-0.48085830 -1.42914772 -0.36611375 -0.999995 0.002938 0.000979
-0.47941253 -0.97287881 -0.30059144 -0.999995 0.002938 0.000979
-0.47950938 -1.00347996 -0.36711836 -0.999995 0.002938 0.000979
-0.63187027 -1.50098491 -0.28455475 0.001367 0.799835 -0.600218
-0.81031209 -1.51574993 -0.31330690 0.001363 0.819039 -0.573736
-0.56294376 -1.52721989 -0.33339173 0.003939 0.894158 -0.447735
-0.51388466 -1.53850222 -0.35428068 0.003824 0.926612 -0.375998
-0.50544906 -0.87508911 -0.30192104 -0.001368 -0.805708 -0.592312
-0.54691195 -0.86755723 -0.31446451 -0.001357 -0.831841 -0.555013
-0.61937916 -0.84473807 -0.35274696 -0.003934 -0.895728 -0.444585
-0.63558865 -0.83541656 -0.36845577 -0.003866 -0.916180 -0.400748
-0.47967273 -1.05496311 -0.21133368 -0.999995 0.002938 0.000979
-0.48060256 -1.34841859 -0.22985525 -0.999995 0.002938 0.000979
-0.47981036 -1.09841168 -0.27302474 -0.999995 0.002938 0.000979
-0.47961161 -1.03567994 -0.26416674 -0.999995 0.002938 0.000979
-0.55002999 -1.43134117 -0.22014618 0.001374 0.616789 -0.787127
-0.71834356 -1.43039274 -0.21977054 0.001365 0.583045 -0.812439
-0.50509584 -1.48631537 -0.26855725 0.001371 0.785794 -0.618487
-0.64392895 -0.94502538 -0.22318400 -0.001372 -0.610705 -0.791857
-0.59077650 -0.93295711 -0.23458438 -0.001378 -0.640861 -0.767655
-0.82774115 -0.94288915 -0.22464225 -0.001381 -0.658602 -0.752490
-0.77709144 -0.92047608 -0.24567583 -0.001384 -0.718088 -0.695951
-0.48014125 -1.20283997 -0.15254450 -0.999995 0.002938 0.000979
-0.48028779 -1.24908459 -0.18193880 -0.999995 0.002938 0.000979
-0.75229526 -1.30564487 -0.15149345 0.001203 0.265967 -0.963981
-0.65630680 -1.34392190 -0.17114407 0.001290 0.403862 -0.914819
-0.64713693 -1.30754006 -0.15230490 0.001232 0.311788 -0.950151
-0.51875836 -1.41419494 -0.20728327 0.001362 0.578659 -0.815569
-0.59350270 -1.37096119 -0.18503357 0.001325 0.478202 -0.878249
-0.59451580 -1.33260190 -0.16518760 0.001284 0.396706 -0.917945
-0.50771356 -1.09741247 -0.15111066 -0.001152 -0.197002 -0.980402
-0.68369466 -1.06639695 -0.16335526 -0.001248 -0.335625 -0.941995
-0.55922753 -1.00894904 -0.18659747 -0.001299 -0.419470 -0.907768
-0.49846715 -0.98222303 -0.19741389 -0.001314 -0.456129 -0.889912
-0.71566790 -1.00074017 -0.18970101 -0.001329 -0.482479 -0.875906
-0.76121724 -1.09331250 -0.15244173 -0.001227 -0.302950 -0.953006
-0.73722565 -1.04344893 -0.17251056 -0.001289 -0.400751 -0.916186
-0.70084608 -1.23370504 -0.14025667 0.001061 0.090153 -0.995927
-0.59932882 -1.22676861 -0.13993721 0.001079 0.111142 -0.993804
-0.74760950 -1.26571929 -0.14167312 0.001120 0.160219 -0.987081
-0.83905560 -1.20541465 -0.13902958 -0.001018 -0.043791 -0.999040
-0.73177707 -1.21743572 -0.13954435 0.001009 0.033281 -0.999445
-0.68810606 -1.18824601 -0.13825274 -0.001007 -0.031203 -0.999513
-0.70704776 0.90899569 -0.46315157 0.003412 0.983919 -0.178584
-0.74820340 0.90480036 -0.54602432 0.003110 0.998248 -0.059086
-0.58311510 0.90372723 -0.55675966 0.003044 0.999365 -0.035510
-0.48363099 0.90399951 -0.54561186 0.003062 0.999120 -0.041843
-0.47283715 1.10221076 -0.50251734 -0.999995 0.002938 0.000979
-0.47307548 1.02702332 -0.45736712 -0.999995 0.002938 0.000979
-0.47331533 0.95131660 -0.50370139 -0.999995 0.002938 0.000979
-0.47288215 1.08800530 -0.50260627 -0.999995 0.002938 0.000979
-0.47213447 1.32399571 -0.52584904 -0.999995 0.002938 0.000979
-0.47198066 1.37254238 -0.52412695 -0.999995 0.002938 0.000979
-0.47314516 1.00499058 -0.55570328 -0.999995 0.002938 0.000979
-0.64018297 1.67217231 -0.41537416 -0.028565 -0.957538 -0.286889
-0.54575527 1.67708802 -0.45885533 -0.027807 -0.970825 -0.238172
-0.76071399 1.68564725 -0.47315729 -0.027050 -0.979675 -0.198758
-0.59152186 0.93655217 -0.36631060 0.003833 0.926251 -0.376888
-0.66322041 0.93589032 -0.36914545 0.003850 0.920197 -0.391437
-0.53856808 0.91832483 -0.42418778 0.003518 0.974582 -0.224001
-0.71264213 0.91418046 -0.43920133 0.003531 0.973303 -0.229497
-0.47190529 1.39630806 -0.34166312 -0.999995 0.002938 0.000979
-0.47192320 1.39065170 -0.35402396 -0.999995 0.002938 0.000979
-0.47252488 1.20077693 -0.36532617 -0.999995 0.002938 0.000979
-0.47309610 1.02050817 -0.35723516 -0.999995 0.002938 0.000979
-0.47294515 1.06815529 -0.43004528 -0.999995 0.002938 0.000979
-0.47129086 1.59019899 -0.34795257 -0.999995 0.002938 0.000979
-0.47252521 1.20069027 -0.43275484 -0.999995 0.002938 0.000979
-0.49364108 1.65209544 -0.37627274 -0.027703 -0.911547 -0.410262
-0.74511224 1.67342424 -0.40435982 -0.028441 -0.960808 -0.275753
-0.77804041 1.65060282 -0.35514724 -0.027525 -0.916201 -0.399773
-0.56730533 1.00686252 -0.25800663 0.001383 0.731560 -0.681775
-0.79094923 1.01111245 -0.25327885 0.001380 0.677534 -0.735490
-0.53610176 0.94943190 -0.33426100 0.003944 0.895208 -0.445632
-0.57359409 0.99020207 -0.28019100 0.001373 0.781002 -0.624527
-0.47245368 1.22322106 -0.28601792 -0.999995 0.002938 0.000979
-0.47262618 1.16876781 -0.26049501 -0.999995 0.002938 0.000979
-0.47290790 1.07987976 -0.27428290 -0.999995 0.002938 0.000979
-0.47211257 1.33089375 -0.32659075 -0.999995 0.002938 0.000979
-0.47224736 1.28835487 -0.32465261 -0.999995 0.002938 0.000979
-0.62517130 1.59362209 -0.27139607 -0.020964 -0.764489 -0.644295
-0.69943243 1.58973861 -0.26323757 -0.020984 -0.756814 -0.653294
-0.80940515 1.60283351 -0.27643391 -0.023611 -0.798609 -0.601387
-0.72455609 1.09131324 -0.19365714 0.001338 0.509765 -0.860313
-0.70887649 1.06620646 -0.21216851 0.001360 0.572458 -0.819933
-0.80102545 1.09887254 -0.18824832 0.001325 0.472993 -0.881065
-0.59726059 1.06753612 -0.21093003 0.001368 0.592312 -0.805708
-0.55794662 1.01171982 -0.25207335 0.001381 0.719425 -0.694569
-0.47281617 1.10883272 -0.22143623 -0.999995 0.002938 0.000979
-0.47192007 1.39165163 -0.19644345 -0.999995 0.002938 0.000979
-0.47165844 1.47416794 -0.23414423 -0.999995 0.002938 0.000979
-0.54800391 1.48787260 -0.18407607 -0.011928 -0.451947 -0.891965
-0.51052666 1.52157462 -0.20960882 -0.015003 -0.544208 -0.838816
-0.58915687 1.53750992 -0.21964757 -0.017988 -0.601894 -0.798374
-0.66731489 1.56516290 -0.23823801 -0.018191 -0.684247 -0.729024
-0.67618227 1.56935585 -0.24111983 -0.018161 -0.694305 -0.719451
-0.80153799 1.20844996 -0.14271130 0.001171 0.221267 -0.975213
-0.81933933 1.19530487 -0.14759296 0.001193 0.251790 -0.967781
-0.67484713 1.18374348 -0.15170237 0.001209 0.276796 -0.960928
-0.79598051 1.11805606 -0.17613338 0.001302 0.425734 -0.904847
-0.50013149 1.19051254 -0.14899826 0.001214 0.280326 -0.959904
-0.52471900 1.38419080 -0.14840634 -0.005877 -0.224512 -0.974454
-0.50403714 1.40318346 -0.15418977 -0.008435 -0.261476 -0.965173
-0.49649203 1.44278967 -0.16594774 -0.008803 -0.335766 -0.941904
-0.58103472 1.43925941 -0.16418709 -0.008762 -0.326711 -0.945084
-0.73510331 1.40399337 -0.15246592 -0.008478 -0.270069 -0.962804
-0.71597463 1.24506176 -0.13565432 0.001098 0.132811 -0.991141
-0.69723809 1.29567838 -0.13548073 -0.000981 -0.002944 -0.999995
-0.55486476 1.25934017 -0.13560227 -0.001063 0.092452 -0.995717
-0.52594507 1.31527078 -0.13539214 -0.003140 -0.072214 -0.997384
-0.03745731 1.75949502 -0.54371369 -0.081553 0.007414 -0.996641
-0.09263887 1.70095623 -0.54371369 -0.251274 0.013225 -0.967826
0.02306090 1.36275482 -0.56833762 -0.024194 0.053648 -0.998267
-0.01091213 1.02968884 -0.59379447 -0.049295 0.077776 -0.995751
-0.07360616 1.38085222 -0.56697780 -0.100763 0.096130 -0.990255
-0.01010158 1.30498171 -0.57275981 -0.049104 0.070928 -0.996272
0.01121860 1.10069060 -0.58836412 -0.031001 0.065210 -0.997390
-0.06926383 1.18882561 -0.58164907 -0.096152 0.098469 -0.990484
0.02678693 1.29715025 -0.57334942 -0.019902 0.055517 -0.998259
0.02000560 1.01308692 -0.59505564 -0.024384 0.064670 -0.997609
-0.02157791 1.32360435 -0.57133967 -0.058423 0.076060 -0.995390
-0.09991165 1.47667515 -0.55966246 -0.164774 0.085394 -0.982628
-0.07853960 1.65280974 -0.54619932 -0.238172 0.027807 -0.970825
-0.03691733 1.54756010 -0.55423135 -0.086475 0.068506 -0.993896
-0.05000550 1.55608988 -0.55358273 -0.118256 0.065443 -0.990824
-0.20138991 1.30147672 -0.57307297 -0.015539 0.235469 -0.971758
-0.17825173 1.29345393 -0.57368058 -0.088855 0.178928 -0.979842
-0.08974996 1.17792690 -0.58248669 -0.109282 0.106932 -0.988242
-0.14502302 1.28120768 -0.57460839 -0.148530 0.126435 -0.980792
-0.19125125 0.95633751 -0.59944183 -0.019905 0.053428 -0.998373
-0.14639920 1.02438533 -0.59423184 -0.046825 0.070782 -0.996392
-0.08767039 1.13423216 -0.58582479 -0.090932 0.097838 -0.991039
-0.05413992 1.00350440 -0.59580541 -0.039956 0.070192 -0.996733
-0.29998845 1.01145983 -0.59525585 0.003208 0.095162 -0.995457
-0.24915831 1.17787552 -0.58252835 0.005744 0.187267 -0.982292
-0.21205908 1.10535669 -0.58806056 0.005585 0.150796 -0.988549
-0.34066436 0.97853893 -0.59778094 0.003152 0.076696 -0.997050
-0.34469458 1.04968643 -0.59234565 0.003257 0.114005 -0.993475
-0.40130684 1.06634438 -0.59108633 0.003282 0.123630 -0.992323
-0.45006171 0.96387696 -0.59892720 0.003122 0.065552 -0.997844
-0.38816193 1.08401370 -0.58973312 0.005512 0.133389 -0.991048
-0.33011743 1.12994647 -0.58620971 0.005616 0.158382 -0.987362
-0.37139332 1.21671200 -0.57958996 0.008189 0.214073 -0.976783
-0.47344181 0.91137028 -0.58928466 -0.999995 0.002938 0.000979
-0.47267374 1.15378571 -0.56833166 -0.999995 0.002938 0.000979
-0.47003156 1.47867000 -0.52514243 0.184121 0.186733 -0.965003
-0.43629923 1.55081511 -0.50421017 0.194952 0.179251 -0.964294
-0.42303738 1.34162629 -0.56495351 0.011042 0.285867 -0.958206
-0.30414522 1.37289596 -0.54983342 0.006086 0.278733 -0.960349
-0.38372558 1.64108419 -0.48558718 0.163287 0.160756 -0.973394
-0.29480907 1.63312781 -0.48753637 -0.063848 0.191544 -0.979405
-0.27758059 1.45087016 -0.52400976 -0.048444 0.257128 -0.965162
-0.33677682 1.51068115 -0.51232243 -0.032946 0.250148 -0.967647
-0.32960835 1.71648920 -0.47239810 0.052312 0.152286 -0.986951
-0.34982955 1.80237687 -0.46045968 0.030552 0.136918 -0.990111
-0.39200160 1.82442999 -0.45714909 0.150037 0.142597 -0.978343
0.41745362 -1.86695421 -0.53720748 0.247558 -0.913504 0.322839
0.40626070 -1.90494370 -0.63908982 0.225938 -0.916704 0.329553
0.41458306 -1.85198581 -0.49315274 0.250506 -0.913696 0.320011
0.47431588 -1.83277833 -0.47068876 0.302490 -0.895549 0.326331
0.38987046 -1.80847871 -0.34756649 0.235009 -0.924367 0.300526
0.32930240 -1.89999676 -0.58245659 0.164389 -0.935223 0.313583
0.38193414 -1.83711827 -0.42823765 0.223029 -0.924788 0.308263
0.28730640 -1.87051821 -0.46679986 0.129717 -0.948136 0.290191
0.18543831 -1.89927614 -0.54256642 0.081826 -0.952039 0.294833
0.23006223 -1.87537980 -0.47337407 0.103748 -0.952114 0.287604
0.29491395 -1.90449727 -0.57559872 0.133610 -0.943366 0.303659
0.28499031 -1.87501049 -0.48045439 0.129616 -0.947398 0.292638
0.07577471 -1.89094579 -0.49781317 0.023566 -0.956288 0.291476
0.09638337 -1.89655983 -0.51960963 0.036353 -0.956466 0.289572
0.19248398 -1.86625993 -0.43858981 0.084033 -0.955394 0.283128
0.08251221 -1.89073622 -0.49832529 0.028612 -0.956643 0.289854
-0.04151188 -1.90931499 -0.56618023 -0.026212 -0.954882 0.295826
0.00114260 -1.93343234 -0.63676959 -0.001225 -0.954632 0.297786
-0.12033732 -1.92571628 -0.63285029 -0.054828 -0.952475 0.299641
-0.02397116 -1.87285674 -0.44527346 -0.026107 -0.956016 0.292151
-0.07028560 -1.88797605 -0.50217128 -0.041628 -0.954923 0.293920
0.01667170 -1.85162127 -0.36967829 -0.013527 -0.957975 0.286532
-0.08304568 -1.84171164 -0.35751244 -0.070670 -0.954686 0.289104
-0.18226150 -1.87777722 -0.49084336 -0.101169 -0.949933 0.295622
-0.08027180 -1.83769858 -0.34426981 -0.070670 -0.954686 0.289104
-0.34457797 -1.85908759 -0.52201974 -0.257963 -0.910886 0.322089
-0.31960133 -1.86395955 -0.52197957 -0.231029 -0.919813 0.317127
-0.22165199 -1.86768794 -0.47536135 -0.136134 -0.944848 0.297876
-0.23917872 -1.90885973 -0.61010981 -0.124904 -0.944167 0.304873
-0.37212324 -1.80283237 -0.38091630 -0.264960 -0.916500 0.299708
-0.46586204 -1.86914229 -0.62411988 -0.360822 -0.867509 0.342397
-0.35839108 -1.84952354 -0.50249398 -0.271196 -0.907407 0.321037
-0.29500896 -1.82922494 -0.40643698 -0.216098 -0.927948 0.303667
0.54685849 -1.73372531 -0.17022739 0.236395 -0.935787 0.261573
0.31567508 -1.82193959 -0.33770332 0.158465 -0.946724 0.280360
0.40646529 -1.78405440 -0.25766408 0.177975 -0.946938 0.267643
0.45520088 -1.73353326 -0.09553105 0.149611 -0.957245 0.247586
0.34775302 -1.76224971 -0.12779528 0.115800 -0.958931 0.258924
0.32082576 -1.81127894 -0.29669440 0.133726 -0.954617 0.266128
0.19937295 -1.83166790 -0.32615334 0.078178 -0.957363 0.278109
0.26064172 -1.79701650 -0.21358894 0.091602 -0.958593 0.269645
0.27611104 -1.78611267 -0.17741954 0.094225 -0.959028 0.267185
0.10165526 -1.78307283 -0.13642192 0.008492 -0.961991 0.272948
0.11263435 -1.80862379 -0.22764838 0.018396 -0.960290 0.278398
0.12843220 -1.78206146 -0.13731578 0.018378 -0.961777 0.273218
0.20603722 -1.76579607 -0.09324706 0.051279 -0.961801 0.268904
0.00979428 -1.83028007 -0.29919308 -0.026039 -0.958485 0.283950
0.00744765 -1.81637299 -0.25104484 -0.031016 -0.959022 0.281628
-0.13268249 -1.82292795 -0.30380303 -0.103489 -0.952358 0.286886
-0.03369102 -1.77547443 -0.11527450 -0.059226 -0.961483 0.268409
-0.13059700 -1.79318345 -0.19729310 -0.105411 -0.956510 0.271987
-0.06914018 -1.78901184 -0.17056379 -0.075313 -0.958649 0.274447
-0.20209435 -1.76096809 -0.09560909 -0.141022 -0.958157 0.249094
-0.27371946 -1.77280235 -0.19304004 -0.190068 -0.944869 0.266642
-0.25395897 -1.78240180 -0.21322520 -0.175342 -0.947393 0.267771
-0.24096146 -1.80831289 -0.30282366 -0.167528 -0.943876 0.284661
-0.41416737 -1.77835679 -0.33643568 -0.286642 -0.912306 0.292462
-0.28108612 -1.74879944 -0.09979241 -0.160963 -0.956466 0.243440
-0.39852855 -1.76802230 -0.27941802 -0.258731 -0.924857 0.278744
-0.46409681 -1.72147727 -0.13586687 -0.205100 -0.949438 0.237699
-0.49980018 -1.80947077 -0.53471518 -0.414069 -0.842201 0.345318
-0.55095023 -1.70962942 -0.39831999 -0.506233 -0.785866 0.355166
-0.48723564 -1.73134148 -0.34851816 -0.410792 -0.851038 0.327084
-0.52717233 -1.82467461 -0.60872865 -0.433625 -0.830983 0.348477
-0.58534050 -1.73536217 -0.50556338 -0.518523 -0.776977 0.356989
-0.59020281 -1.77182615 -0.59104824 -0.502562 -0.788364 0.354844
0.52336842 -1.80123734 -0.41434249 0.350896 -0.876480 0.329629
0.64941603 -1.80867863 -0.61985832 0.456496 -0.815966 0.354699
0.61871988 -1.83299339 -0.62585950 0.422720 -0.834441 0.353577
0.67821026 -1.73374569 -0.50256217 0.517223 -0.778252 0.356095
0.68221855 -1.73929250 -0.52046394 0.517223 -0.778252 0.356095
0.67085707 -1.76979840 -0.56869262 0.490832 -0.797802 0.350137
-0.68023443 1.69674516 -0.50978655 0.076536 -0.001048 -0.997066
-0.47141188 1.55202270 -0.51759332 -0.999995 0.002938 0.000979
-0.47168517 1.46580386 -0.52143800 -0.999995 0.002938 0.000979
-0.45581293 1.39009416 -0.54490024 0.072215 0.264788 -0.961599
-0.32155547 1.77729154 -0.51063818 -0.268202 0.001203 0.963362
-0.34352070 1.81795764 -0.54132551 0.998730 -0.003079 -0.050296
-0.29733598 1.76679599 -0.56693548 -0.519223 0.001342 0.854638
-0.29217240 1.74774873 -0.51770401 0.609379 -0.001369 0.792878
-0.30623105 1.81727982 -0.51464337 -0.265352 0.001201 -0.964151
-0.36218476 1.68564975 -0.53904289 0.002938 0.999995 0.000979
-0.40363780 1.68577850 -0.56705290 0.002938 0.999995 0.000979
-0.25916609 1.68532920 -0.58984637 0.002938 0.999995 0.000979
-0.36197582 1.47958410 -0.48401716 -0.178186 0.001135 0.983996
-0.32483405 1.37571847 -0.47909775 -0.000979 -0.000979 0.999999
-0.41775203 1.62206817 -0.50481868 -0.600218 0.001367 0.799835
-0.38224670 1.61573875 -0.48741239 -0.294859 0.001223 0.955540
-0.42969576 1.47906888 -0.51121593 -0.661530 0.001381 0.749918
-0.43229294 1.61810231 -0.56826204 -0.804402 0.001366 -0.594083
-0.43904787 1.45846069 -0.55683488 -0.963183 0.003616 -0.268823
-0.41165248 1.58706927 -0.58325672 -0.573736 0.001363 -0.819039
-0.40040684 1.37728751 -0.58909231 -0.519223 0.001342 -0.854638
-0.31838223 1.45060718 -0.60675043 -0.045917 0.001020 -0.998945
-0.37676865 1.40837133 -0.59910262 -0.312519 0.001235 -0.949911
-0.25955799 1.43967724 -0.59994781 0.205018 -0.001158 -0.978758
-0.29465288 1.39703226 -0.60453755 0.050193 0.001024 -0.998739
-0.22363184 1.36413872 -0.58606029 0.446689 -0.001310 -0.894688
-0.18857856 1.58514583 -0.55383021 0.947931 -0.003717 -0.318455
-0.19717333 1.51563931 -0.56914395 0.743362 -0.001379 -0.668888
-0.21556970 1.60087478 -0.50255477 0.583045 -0.001365 0.812439
-0.21760596 1.40553141 -0.50186038 0.619822 -0.001374 0.784741
-0.30807856 1.61163759 -0.47864288 0.033348 -0.001011 0.999443
-0.30916554 1.35272443 -0.47860789 0.069985 -0.001045 0.997548
-0.18465145 1.67310572 -0.54715854 0.973948 -0.226745 -0.003525
-0.29278910 1.83768225 -0.56739253 0.358655 0.761128 -0.540417
-0.19274004 1.67872870 -0.51949644 0.479490 -0.797012 0.367235
-0.19936304 1.67772281 -0.57431805 0.681088 -0.412630 -0.604860
-0.28639281 1.42946911 -0.53655952 -0.964758 0.003604 -0.263116
0.19344787 -1.17432976 0.13304953 -0.327657 -0.832469 -0.446806
0.04697820 -1.16983128 0.15842974 -0.088301 -0.987793 0.128331
-0.18163367 -1.13814998 0.14969668 0.061196 0.253525 -0.965391
-0.39131981 -1.06028533 0.16268229 0.134615 0.484905 -0.864145
-0.24970438 -1.12393153 0.16019993 -0.126940 -0.452133 0.882872
0.50407803 -1.08605313 0.17029311 0.091650 -0.392592 0.915135
-0.48903397 -0.99926263 0.16718620 -0.782314 0.596989 -0.177730
0.30609232 -1.08303726 0.17536567 0.024967 -0.092269 0.995421
-0.20496529 -1.08077943 0.17037952 -0.074197 -0.488578 0.869360
0.30956110 -1.08327031 0.16884367 0.111739 -0.886837 0.448369
0.68685788 1.28702056 0.46088782 0.888274 0.114388 0.444843
0.70072913 1.39534605 0.39323205 0.865804 0.230379 0.444195
0.75165761 1.38521206 0.29367471 0.883882 0.201484 0.422087
0.73967952 1.41949570 0.30152923 0.874320 0.235452 0.424413
0.71491784 1.43314600 0.34359783 0.856280 0.271130 0.439629
0.87467611 1.31385207 0.14362721 0.988549 0.040092 0.145476
0.86106890 1.56881177 0.10300102 0.973868 0.180627 0.137680
0.86176884 1.63048506 -0.01217386 0.933174 0.323923 0.155759
0.90659368 0.21334040 -0.55142230 0.985521 0.007957 -0.169369
0.90717202 -0.04940380 -0.55706012 0.984778 0.003408 -0.173784
0.90895754 -0.26284543 -0.54486042 0.987428 -0.003362 -0.158033
0.90449834 -0.26753399 -0.57249087 0.982383 -0.003439 -0.186848
0.90602994 -0.22620428 -0.56414974 0.984316 -0.003414 -0.176380
0.90003139 -0.62039685 -0.58041561 0.981315 -0.017420 -0.191618
0.90238398 -0.62304056 -0.56546146 0.984217 -0.017267 -0.176123
0.89245266 0.07528736 -0.59204483 0.730365 0.015361 -0.682884
0.89076936 0.09250990 -0.59329259 0.727663 0.015363 -0.685763
0.86221343 0.10141896 -0.62074560 0.691458 0.018159 -0.722189
0.87779915 -0.26394230 -0.61336499 0.698635 0.012550 -0.715368
0.89529103 0.84380686 -0.57981211 0.719225 -0.079914 -0.690166
0.91885686 1.52880383 -0.13208434 0.915012 0.250074 0.316568
0.90422833 0.35093340 -0.55876672 0.982597 0.010367 -0.185461
0.88840348 -0.65621823 -0.60584885 0.731638 0.006942 -0.681659
0.93718880 1.01219308 -0.26344690 0.999562 0.011163 -0.027399
0.93886298 1.13435197 -0.15981442 0.999616 0.005043 -0.027235
0.93600291 1.34413004 -0.10155831 0.953314 0.046968 0.298307
0.89874786 0.86403024 -0.57858396 0.724010 -0.067921 -0.686437
0.93128669 1.55160904 -0.18446240 0.905815 0.306832 0.292151
0.89790493 0.45232445 -0.57563764 0.866480 0.020276 -0.498800
0.90417856 0.21916312 -0.56512016 0.973554 0.008281 -0.228306
0.90368664 -0.30816814 -0.57559830 0.976318 -0.003508 -0.216310
0.89845109 -0.54678369 -0.59255105 0.919374 -0.009026 -0.393281
0.89476931 0.69503206 -0.56958818 0.886589 0.006626 -0.462511
0.91113800 0.88307762 -0.56569052 0.900294 -0.017186 -0.434944
0.89507365 1.28382432 0.01990194 0.967630 0.023068 0.251317
0.87938070 1.56940436 -0.02281271 0.960408 0.204764 0.188911
0.93847090 1.35633850 -0.16270901 0.995265 -0.014048 -0.096177
0.93844676 1.27305019 -0.15745515 0.969075 0.003576 -0.246739
0.89230651 0.87857383 -0.58598870 0.712231 -0.038231 -0.700903
0.93932956 1.13715374 -0.14210744 0.999917 -0.000991 -0.012883
0.93866551 1.06698680 -0.18449120 0.999708 0.007033 -0.023109
0.92807525 1.05020440 -0.14460462 0.881342 -0.300835 0.364328
0.93527585 0.93213564 -0.29743889 0.941153 -0.294538 0.165764
0.91393316 0.81450057 -0.50957948 0.976198 -0.216803 0.005860
0.59247667 1.22272515 0.63063920 0.378277 -0.896384 0.231088
0.68044811 1.30162096 0.47045943 0.884485 0.132887 0.447244
0.86318403 1.40221548 0.15045576 -0.264351 0.530266 0.805566
0.90075195 1.58842802 -0.13481960 0.913393 0.318017 0.254124
0.93450946 1.54435623 -0.23519477 0.998443 0.026192 -0.049241
0.83525109 1.36181772 0.19123320 0.724010 0.067921 0.686437
0.57046551 1.32301831 0.63144511 -0.084201 0.968946 0.232497
-0.61308968 1.35260713 0.37466118 -0.885292 0.176475 0.430249
-0.59117091 1.43230200 0.37797141 -0.850738 0.275375 0.447676
-0.61723781 1.47879851 0.29535565 -0.849895 0.301875 0.431914
-0.61451793 1.42382085 0.33689034 -0.864458 0.252828 0.434500
-0.55752325 1.43856490 0.43384230 -0.789733 0.368328 0.490567
-0.59846532 1.50884402 0.30840975 -0.811462 0.371455 0.451166
-0.75318253 1.56739521 0.10346945 -0.975451 0.174502 0.134329
-0.80430835 1.24513793 -0.03166230 -0.953004 -0.008652 0.302835
-0.82751101 1.04600501 -0.16906239 -0.952995 -0.170226 0.250647
-0.81884211 1.12648177 -0.09587583 -0.952613 -0.100896 0.286963
-0.80722421 0.11443199 -0.55467880 -0.983956 0.012630 -0.177962
-0.80951589 -0.15712839 -0.55719948 -0.984306 0.005690 -0.176379
-0.76333892 -0.00173375 -0.62345636 -0.691356 0.021035 -0.722208
-0.78734082 -0.46548915 -0.61118656 -0.713976 0.012526 -0.700058
-0.77667969 -0.34511986 -0.61903590 -0.695781 0.015338 -0.718090
-0.78275216 -0.54960889 -0.61688495 -0.705713 0.004159 -0.708486
-0.76314116 0.78024286 -0.60074085 -0.693395 -0.046986 -0.719024
-0.78153503 1.59202027 -0.09764910 -0.929728 0.292039 0.224320
-0.80587584 -0.67974150 -0.57721353 -0.982106 0.043728 -0.183185
-0.77488607 0.67529911 -0.58852321 -0.708260 0.026753 -0.705444
-0.83220637 1.33851075 -0.12727082 -0.999604 0.007061 -0.027234
-0.79431957 0.89485270 -0.58000618 -0.733083 -0.026734 -0.679614
-0.81122708 0.98655385 -0.31865731 -0.001361 0.823366 -0.567510
-0.80456752 0.18049121 -0.56526554 -0.975293 0.012972 -0.220532
-0.79900879 0.33491924 -0.57715714 -0.883544 0.020111 -0.467916
-0.80426317 -0.17931409 -0.58493012 -0.913506 0.009096 -0.406724
-0.80316490 -0.54385638 -0.59226155 -0.921508 -0.003845 -0.388341
-0.79353702 0.68232119 -0.56497973 -0.924666 0.024640 -0.379982
-0.77252460 1.36094046 0.08522303 -0.986767 0.054756 0.152617
-0.76173645 1.52474952 0.08110016 -0.983444 0.110078 0.143948
-0.76247287 1.53447580 0.06601574 -0.980432 0.126389 0.150930
-0.77348495 1.59264529 -0.06208479 -0.944432 0.261809 0.198756
-0.83307195 1.03686130 -0.20769118 -0.999756 0.011075 -0.019129
-0.83316344 1.16796470 -0.13802806 -0.999639 0.009097 -0.025269
-0.83010620 0.95557064 -0.35015658 -0.998755 0.017631 -0.046671
-0.49287844 1.25599480 0.62119406 -0.743462 0.101582 0.661019
-0.77139717 1.29551244 0.12143113 -0.991081 0.044174 0.125726
-0.63898623 1.27963531 0.34438932 -0.897682 0.096031 0.430052
-0.82448709 0.97860569 -0.23551510 0.243153 -0.763970 0.597685
-0.74259287 1.63760173 -0.00008861 0.317490 0.853351 0.413511
-0.65346736 1.49740756 0.23158349 -0.874041 0.327956 -0.358464
-0.75314778 1.45063758 0.14751694 0.088284 0.092870 0.991757
-0.75758773 1.40407956 0.15651447 -0.573484 0.549800 0.607318
-0.81108618 1.57125235 -0.16746069 -0.892502 0.336370 0.300491
-0.82722098 1.55569220 -0.19781622 -0.977813 0.167732 0.125488
-0.72853446 1.39484429 0.18680364 -0.713673 0.077036 0.696231
-0.56578439 1.46928406 0.38352510 0.440353 0.828621 0.345653
0.87291270 1.55872893 0.02969985 0.973787 0.163353 0.158288
0.89503247 1.42737055 -0.00760954 0.958147 0.088980 0.272098
0.87785792 1.39462209 0.08609334 0.988544 0.056653 0.139899
0.89442909 1.37755513 -0.01027662 0.341969 -0.939463 -0.021611
0.86797184 1.43137825 0.06920975 -0.143005 -0.314611 0.938386
0.89217895 1.39472997 -0.04593870 0.250418 0.741804 0.622107
0.90462679 0.28476518 -0.56009644 0.982676 0.010344 -0.185042
0.91539305 0.82484090 -0.50839919 0.981945 -0.118321 -0.147597
0.85397804 -0.80236351 0.09417810 0.805706 -0.076118 0.587404
0.83888632 -0.78550857 0.11684470 0.784798 -0.082382 0.614252
0.79571366 -0.95795465 0.13683991 0.516550 -0.148637 0.843257
0.87221289 -0.92759949 0.05207606 0.800643 -0.091213 0.592158
0.85653996 -1.15925694 0.02855548 0.735004 -0.142792 0.662857
0.79302442 -1.27961493 0.06257930 0.655378 -0.206064 0.726648
0.81905180 -1.27479041 0.03904524 0.684462 -0.193133 0.703002
0.84186161 -1.31911767 0.00399965 0.693442 -0.206326 0.690339
0.81630445 -1.42678213 -0.00753013 0.689048 -0.276578 0.669863
0.88126373 -0.97304302 0.02384133 0.989797 -0.053906 0.131896
0.90751493 -0.89919358 -0.13994902 0.960739 0.148109 0.234614
0.92791963 -0.86370552 -0.24881411 0.911011 0.326918 0.251363
0.91748667 -0.83521622 -0.24911718 0.932574 0.290290 0.214562
0.91157776 -1.00201488 -0.10528510 0.912590 0.126787 0.388722
0.88657933 -1.32096517 -0.06778468 0.828965 -0.168780 0.533226
0.92103559 -1.24105275 -0.09951173 0.827492 -0.078605 0.555949
0.86926293 -1.39306593 -0.06919084 0.838057 -0.233557 0.493064
0.76069468 -0.94015306 0.16125946 0.670918 -0.294432 0.680572
0.88598806 -0.74162346 -0.61563402 0.712291 0.120450 -0.691472
0.91700453 -0.76771820 -0.42109483 0.921985 0.383387 0.054390
0.93473405 -1.17508066 -0.13481738 0.999469 -0.017355 -0.027565
0.93500686 -1.16005218 -0.13408573 0.999432 -0.019397 -0.027563
0.93316364 -1.25651169 -0.13714139 0.999305 -0.019474 -0.031773
0.93774468 -0.95531648 -0.22553250 0.999260 -0.021567 -0.031837
0.91153568 -1.25096834 -0.16331838 0.001106 0.140492 -0.990081
0.85802770 -1.42206347 -0.06256110 0.910585 -0.209247 0.356441
0.87617409 -1.22674191 -0.02896071 0.894252 -0.084573 0.439501
0.89122564 -0.96107072 -0.05187869 0.981953 0.015036 0.188526
0.88969648 -0.89634663 -0.02381437 0.993879 -0.034272 0.105026
0.88866001 -0.81486481 0.01543007 0.994356 -0.034212 0.100429
0.93291306 -1.23962855 -0.15574381 0.997071 -0.013775 -0.075231
0.92974293 -0.80074877 -0.45679510 0.995613 -0.040525 -0.084337
0.79677629 -1.16447425 0.09006628 0.648905 -0.185621 0.737880
0.77203995 -1.05116689 0.13123919 0.382864 -0.195044 0.902980
0.76546896 -1.46982539 0.02352923 0.569949 -0.804546 0.166924
0.90655607 -0.76826733 -0.34779099 -0.269598 0.950971 0.151565
-0.74553907 -1.01765704 0.07881243 -0.762715 -0.123402 0.634852
-0.77473015 -1.00041497 0.04594558 -0.783025 -0.103916 0.613248
-0.75812650 -1.10437727 0.04603816 -0.747070 -0.133245 0.651254
-0.75535446 -1.07397270 0.05565558 -0.754189 -0.129930 0.643674
-0.71783042 -1.21491778 0.06360251 -0.683214 -0.179632 0.707779
-0.74272901 -1.18831468 0.04495542 -0.713077 -0.159644 0.682668
-0.68844485 -1.44072413 0.02321185 -0.649856 -0.262167 0.713412
-0.71173894 -1.66118455 -0.18415192 -0.743046 -0.581163 0.331862
-0.83162564 -0.85361689 -0.24523728 -0.912162 0.326290 0.247981
-0.78824997 -1.38276374 -0.08053081 -0.832052 -0.231381 0.504135
-0.81882787 -1.38677478 -0.12947206 -0.813424 -0.266978 0.516782
-0.79893702 -1.45381856 -0.13904116 -0.815100 -0.344789 0.465545
-0.68963349 -0.84961122 0.17052853 -0.735241 -0.195756 0.648923
-0.81412554 -0.71757293 -0.54982430 -0.977728 0.140743 -0.155689
-0.84067357 -0.83104926 -0.37019622 -0.998726 -0.013454 -0.048643
-0.84461242 -0.88812143 -0.24495210 -0.966673 0.195930 0.164789
-0.81957835 -0.77897549 -0.58174992 -0.974527 0.127003 -0.184846
-0.83783466 -0.79598868 -0.41201094 -0.955152 0.294182 0.033800
-0.83010274 -0.81872487 -0.50710654 -0.892454 -0.431281 -0.132374
-0.77126414 -1.27729225 -0.00591469 -0.835158 -0.158725 0.526609
-0.77596503 -1.40739405 -0.07236920 -0.844241 -0.242738 0.477844
-0.78387713 -1.12164557 -0.00334173 -0.974724 -0.057337 0.215928
-0.79919273 -0.87982208 -0.04898089 -0.994568 -0.022926 0.101531
-0.84114391 -1.26389146 -0.16352688 -0.971102 0.032734 -0.236411
-0.70863801 -1.16348159 0.08609658 -0.673792 -0.179576 0.716768
-0.69976944 -1.11935747 0.10453392 -0.584524 -0.180671 0.791005
-0.63511080 -0.98117840 0.15656601 0.840786 0.518657 0.155154
-0.75134575 -1.60146856 -0.17358795 -0.945619 -0.278923 0.167354
-0.83174706 -1.41643047 -0.16756055 -0.848400 -0.298254 0.437335
-0.80035520 -0.78959095 -0.05314707 -0.375114 0.926827 0.016758
-0.68020576 -0.84216613 0.18403403 -0.756124 -0.351347 0.552116
-0.65519434 -0.80990583 0.23137733 -0.593660 -0.449843 0.667240
-0.66651362 -0.87876916 0.17285216 -0.599126 -0.468224 0.649472
0.91900212 -1.45311594 -0.18720387 0.829813 -0.365118 0.422019
0.24089485 0.67442834 0.71873915 0.023574 0.027674 0.999339
0.07296359 0.70539826 0.72010857 0.003032 0.031329 0.999505
0.13374545 0.57070112 0.72276723 0.011031 0.017048 0.999794
0.13605496 0.59910244 0.72225600 0.011053 0.019091 0.999757
0.18796659 0.62018657 0.72131336 0.017217 0.021269 0.999626
0.26230332 0.52385563 0.72137803 0.027454 0.013219 0.999536
0.21072385 0.20566052 0.72085375 0.021353 -0.021353 0.999544
0.10849647 0.18849653 0.72179532 0.007047 -0.023155 0.999707
0.17109545 0.29565254 0.72334296 0.015042 -0.013037 0.999802
0.13858512 0.06736510 0.71773922 0.011294 -0.042098 0.999050
0.17668995 0.10329285 0.71863240 0.015404 -0.035944 0.999235
0.13153954 0.73228651 0.71879256 0.011206 0.033618 0.999372
0.06770616 0.73468417 0.71917003 0.003038 0.035439 0.999367
0.27617446 0.79471749 0.71387482 0.028235 0.042875 0.998681
0.18592614 0.72980320 0.71831805 0.017423 0.033822 0.999276
0.18813421 0.82351643 0.71445054 0.017668 0.046768 0.998750
0.14408822 1.12583625 0.69440669 0.011745 0.086485 0.996184
0.09785925 1.15493631 0.69230205 0.007457 0.088420 0.996055
0.26762149 1.06302810 0.69743562 0.029144 0.080955 0.996292
0.22222567 1.21406412 0.68512106 0.025021 0.092469 0.995401
0.08828521 1.16439819 0.69154996 0.005327 0.088421 0.996069
0.13885450 -0.02575167 0.71292526 0.011563 -0.068328 0.997596
0.13648961 -0.16780709 0.69947433 0.012275 -0.141723 0.989830
0.07671031 -0.29854363 0.67431343 0.003570 -0.243934 0.969785
0.24026313 -0.26449853 0.67905992 0.037396 -0.225583 0.973506
0.17518370 -0.41712543 0.63367331 0.040751 -0.379905 0.924128
0.32842058 0.64255023 0.71693802 0.042702 0.023955 0.998801
0.38103467 0.65101647 0.71458888 0.058082 0.026401 0.997963
0.45970935 0.56497705 0.71031541 0.108256 0.016402 0.993988
0.42842108 0.55581206 0.71293259 0.089168 0.016115 0.995886
0.40107352 0.66313654 0.71283460 0.069474 0.026721 0.997226
0.36724058 0.24224985 0.71667999 0.055517 -0.019902 0.998259
0.33849460 0.05400234 0.71246231 0.047920 -0.045790 0.997801
