-0.08672559 -0.18538664 0.67655897 -0.005133 0.048247 -0.998822
-0.10926786 -0.05214997 0.68305296 -0.003098 0.054726 -0.998497
-0.15974344 0.02779899 0.68834704 -0.009332 0.052883 -0.998557
-0.15477003 -0.16612288 0.67749518 0.009295 0.050605 -0.998676
-0.20044461 -0.35700902 0.60236442 0.985802 0.050284 -0.160207
-0.19671732 -0.45295084 0.58390588 0.988729 0.058977 -0.137613
-0.19677310 -0.49222735 0.56511152 0.987979 0.059209 -0.142798
-0.21011953 -0.43358132 0.48887411 0.990852 0.041995 -0.128255
-0.18747492 -0.58683133 0.59024471 0.982544 0.038738 -0.181953
-0.18657692 -0.55377829 0.60954052 0.972500 0.055047 -0.226305
-0.04149037 -0.36621809 0.66795993 -0.017666 0.048841 -0.998650
-0.06862620 -0.52478892 0.66066533 -0.019863 0.053317 -0.998380
-0.17464097 -0.41865474 0.66524291 0.137928 0.059112 -0.988677
-0.14823478 -0.57974315 0.65816814 0.028689 0.060566 -0.997752
-0.18381467 0.05024929 0.60809505 0.961971 -0.041067 -0.270049
-0.18620606 0.11013886 0.58113372 0.966231 -0.071619 -0.247526
-0.18769939 0.11209368 0.57483107 0.966731 -0.068784 -0.246373
-0.18691698 0.15920812 0.56881213 0.967252 -0.035552 -0.251314
-0.13268140 0.10501643 0.67638832 0.083297 -0.172630 -0.981458
-0.15472578 0.16700965 0.65067834 0.341501 -0.175669 -0.923319
-0.19579089 0.50287050 0.52616185 0.984387 -0.003406 -0.175986
-0.19528030 0.64142567 0.52600867 0.990382 -0.003320 -0.138321
-0.18659461 0.60061425 0.58548117 0.988721 0.012345 -0.149262
-0.18611084 0.56600207 0.58650517 0.987130 0.012438 -0.159433
-0.19255818 0.85553223 0.55228078 0.997609 0.024384 -0.064670
-0.20693068 0.34869155 0.47987008 0.975178 -0.013002 -0.221040
-0.20477764 0.45472193 0.48225975 0.980945 -0.012770 -0.193867
-0.19825539 0.43499202 0.51451916 0.980742 -0.005776 -0.195224
-0.18831167 0.87390435 0.60737503 0.960636 0.059330 -0.271402
-0.18630625 0.37984633 0.57390010 0.977957 0.008159 -0.208646
-0.19000453 0.18965845 0.55508918 0.965565 -0.013293 -0.259820
-0.19254860 0.88431281 0.56253099 0.997568 0.058806 -0.037422
-0.17763610 0.57686961 0.62391794 0.932824 0.011454 -0.360149
-0.19898082 0.29285961 0.51614773 0.973042 -0.005912 -0.230551
-0.16105874 0.85712194 0.62314224 0.119285 -0.158637 -0.980105
-0.07034098 0.64759362 0.63268489 -0.105931 -0.041257 -0.993517
-0.05683065 0.81049514 0.62520820 -0.131626 -0.146388 -0.980431
-0.16185194 0.45899934 0.63874269 0.246149 -0.027889 -0.968831
-0.03908127 0.28403589 0.64262778 -0.367628 -0.065032 -0.927696
-0.04697309 0.41649860 0.64123464 -0.214371 -0.037126 -0.976047
-0.09963843 0.43487823 0.64168811 -0.028122 -0.038538 -0.998861
-0.14300534 0.89670575 0.61523211 0.059330 -0.271402 -0.960636
-0.09556893 0.40456969 0.64272678 -0.038848 -0.038848 -0.998490
-0.15108360 0.32446370 0.64537174 0.173169 -0.031380 -0.984392
0.01231061 -0.16813187 0.60868889 -0.979955 -0.001152 -0.199215
0.00669271 -0.14484662 0.64637780 -0.992753 -0.012067 -0.119569
0.02480905 -0.10068525 0.49812800 -0.984475 -0.038447 -0.171264
0.02006479 -0.35966805 0.53244901 -0.983012 0.022051 -0.182211
-0.00223949 -0.49201685 0.62434030 -0.950701 0.031480 -0.308506
-0.00108815 -0.32367101 0.65831411 -0.950641 0.047087 -0.306699
0.00997904 -0.23769827 0.61343884 -0.959886 0.030964 -0.278677
0.02320435 -0.51904809 0.50675333 -0.975145 0.015366 -0.221033
0.01925622 -0.51153594 0.52394146 -0.975653 0.015374 -0.218783
0.01888832 -0.33009303 0.54367030 -0.983982 0.021969 -0.176909
-0.00448894 0.10642015 0.54482567 -0.969686 -0.112813 -0.216753
-0.01926161 0.04286307 0.65839487 -0.968809 -0.196850 -0.150532
-0.03421914 0.16617821 0.64167100 -0.927945 -0.087542 -0.362289
-0.01167030 0.13951145 0.55893356 -0.972375 -0.088625 -0.215945
-0.00130757 0.03236590 0.57215029 -0.973787 -0.124715 -0.190222
0.00793971 0.04831293 0.51869959 -0.971447 -0.109618 -0.210417
-0.02084741 0.46259767 0.56554204 -0.987802 -0.014710 -0.155016
-0.02379489 0.57777292 0.57581061 -0.991808 -0.012163 -0.127155
-0.02238249 0.66374326 0.55479032 -0.993988 -0.016402 -0.108256
-0.01483885 0.46736220 0.52763641 -0.987866 -0.023872 -0.153466
-0.02424317 0.77923906 0.55121654 -0.996206 -0.035850 -0.079305
-0.03392369 0.41186512 0.63220507 -0.924655 -0.016765 -0.380437
-0.03316078 0.88080466 0.61383307 -0.926214 -0.079083 -0.368609
-0.03028334 0.90407562 0.49345836 -0.966129 -0.258034 0.003600
-0.02819831 0.82756561 0.59895247 -0.988410 -0.019247 -0.150583
-0.01627292 0.27298081 0.55884528 -0.980518 -0.022205 -0.195169
-0.00927669 -0.35857707 0.66735327 -0.261256 0.053751 -0.963772
-0.00668763 -0.00648576 0.63141674 -0.925754 -0.157309 -0.343851
-0.00384900 -0.36042783 0.66303623 -0.919824 0.051765 -0.388901
-0.02114129 -0.21915948 0.64916718 -0.001018 0.043791 -0.999040
-0.08115884 -0.42942217 0.66506487 0.001026 0.052343 -0.998629
-0.15161833 -0.52304858 0.66078037 0.026457 0.058205 -0.997954
-0.01605001 -0.36473364 0.66752762 -0.092022 0.049892 -0.994506
-0.04562840 -0.32922316 0.66778511 0.001018 -0.999040 -0.043791
-0.16971728 -0.20349920 0.58226705 0.757026 0.438451 -0.484431
-0.18972856 -0.08883888 0.65448600 0.757026 0.438451 -0.484431
-0.10105480 -0.25781471 0.61857635 0.713129 0.477082 -0.513653
-0.09827990 -0.20730434 0.66944867 0.713129 0.477082 -0.513653
-0.05375062 -0.29534820 0.64931136 0.713129 0.477082 -0.513653
-0.09358216 -0.28697807 0.62574071 0.757026 0.438451 -0.484431
-0.16016142 -0.14667706 0.64843738 0.757026 0.438451 -0.484431
-0.17359073 -0.13430916 0.63864303 0.757026 0.438451 -0.484431
-0.16224453 -0.15912797 0.64168364 0.790824 0.402690 -0.460910
-0.13631225 -0.21860385 0.63411647 0.790824 0.402690 -0.460910
-0.02903306 -0.40550604 0.65461451 0.790824 0.402690 -0.460910
-0.12443969 -0.29470062 0.60515690 0.819280 0.370664 -0.437480
-0.19197929 -0.11235112 0.63344425 0.819280 0.370664 -0.437480
-0.09743538 -0.30561930 0.64650720 0.819280 0.370664 -0.437480
-0.11524989 -0.31449598 0.60556912 0.819280 0.370664 -0.437480
-0.11905805 -0.29478872 0.63775581 0.848647 0.334787 -0.409531
-0.16813482 -0.20743114 0.60746795 0.848647 0.334787 -0.409531
-0.18779767 -0.07501373 0.67489153 0.848647 0.334787 -0.409531
-0.13133353 -0.23151466 0.64590925 0.819280 0.370664 -0.437480
-0.18387745 -0.20482644 0.57007515 0.819280 0.370664 -0.437480
-0.19898413 -0.16775149 0.57324940 0.819280 0.370664 -0.437480
-0.14903951 -0.15256858 0.67316949 0.799955 0.394344 -0.452288
-0.12953071 -0.23887554 0.63276839 0.799955 0.394344 -0.452288
-0.06642804 -0.34269416 0.65420669 0.799955 0.394344 -0.452288
-0.22025231 -0.40401322 1.04320288 -0.003002 0.021016 -0.999775
-0.25905532 -0.43197748 1.11107147 -0.037718 -0.070048 0.996830
0.11707097 -0.40819448 1.07977521 0.993612 -0.027631 -0.109419
0.00794124 -0.39192784 1.04349577 0.001003 0.025067 -0.999685
-0.00449585 -0.36861634 1.04410744 0.001003 0.027071 -0.999633
0.04234927 -0.40608394 1.04324234 0.002996 0.020974 -0.999776
-0.30151558 -0.36735111 1.07615900 0.004158 0.727583 0.686007
-0.17153908 -0.35204449 1.05811405 -0.499424 0.637312 0.586865
-0.01070482 -0.35232487 1.05795765 0.004159 0.716738 0.697330
0.07027374 -0.37532324 1.08012307 0.012524 0.722192 0.691579
0.09590909 -0.39292914 1.09811175 0.018163 0.713941 0.699970
-0.01493788 -0.34697625 1.05220938 0.029439 0.769609 0.637836
0.00156102 -0.34506384 1.04966629 0.012385 0.805029 0.593107
-0.15117344 -0.37622726 1.08722126 0.018148 0.677066 0.735699
-0.06164463 -0.36614099 1.07747304 -0.001381 0.752490 0.658602
-0.95945615 -1.46740687 0.35860804 0.975341 0.166950 -0.144355
-0.94551337 -1.46918583 0.53000993 0.994639 0.020699 -0.101316
-0.89505953 -1.58817232 0.56180787 0.156261 -0.546168 0.822972
-0.91468841 -1.49557853 0.46029839 0.529701 0.829815 -0.175567
-0.90821409 -1.63523686 0.52111447 -0.079930 -0.707745 0.701932
-0.96446097 -1.49451208 0.27672204 0.996756 -0.063992 -0.048807
-0.95901042 -1.41946638 0.48796222 0.991465 -0.001096 -0.130369
-0.96245372 -1.51586115 0.22900331 0.994724 0.067949 0.076860
-0.94046104 -1.16091311 0.21270101 0.988166 -0.140503 0.061543
-0.93923914 -1.48171306 0.03929162 0.986971 0.033320 0.157410
-0.96350598 -1.34392858 0.23169473 0.996065 -0.055762 0.068883
-0.94658846 -1.25452983 0.43466789 0.994813 -0.087420 -0.052009
-0.93376029 -1.25672805 0.45276120 -0.122987 0.320307 -0.939296
-0.93961334 -1.53635073 0.05896262 0.948570 -0.166440 -0.269280
-0.93798107 -1.69655538 0.35071602 0.993202 0.115233 -0.016462
-0.93880880 -1.68539321 0.37322173 0.993427 0.111609 -0.025416
-0.90205353 -1.69995725 0.24161834 -0.080357 -0.960457 -0.266581
-0.93191051 -1.71012557 0.31333563 0.089625 -0.994730 -0.049792
-0.90253448 -1.61011636 0.18195680 0.504909 0.733360 -0.455246
-0.94262606 -1.35644710 0.11701424 0.993275 -0.061869 0.097865
-0.94309926 -1.34793437 0.12723009 0.993386 -0.066526 0.093588
-0.90418535 -1.42440724 0.04070427 -0.092226 0.050002 -0.994482
-0.94538265 -1.27247798 0.17678642 0.994724 -0.067949 0.076860
-0.94369215 -1.21192491 0.32857540 0.993127 -0.110347 -0.039012
-0.95283335 -1.30765188 0.27893531 0.998650 -0.048841 0.017666
-0.95215708 -1.34406650 0.31808335 0.994276 0.096650 -0.045548
-0.95085400 -1.28001809 0.31548461 0.996550 -0.080453 -0.020382
-0.89776909 -1.17950213 0.18208411 0.062285 0.873372 -0.483054
-0.93558431 -1.19544089 0.16375491 0.173719 0.799109 -0.575540
-0.93923092 -1.28986764 0.25766763 -0.152718 -0.874128 -0.461062
-0.74320042 -1.40427101 0.03695525 -0.003263 -0.118544 0.992943
-0.92350936 -1.42526770 0.03520958 -0.090389 -0.056912 0.994279
-0.78497016 -1.35997057 0.04393263 -0.005922 -0.233324 0.972381
-0.68576753 -1.30373442 0.06343981 -0.001299 -0.424733 0.905318
-0.76684308 -1.33036637 0.05243792 -0.006273 -0.334978 0.942205
-0.84885800 -1.28885365 0.07075594 -0.012007 -0.476292 0.879205
-0.82484227 -1.27620733 0.07852520 -0.009470 -0.520825 0.853611
-0.93478024 -1.28482735 0.06678879 -0.922319 -0.191264 0.335775
-0.88338536 -1.24939740 0.09661976 -0.009664 -0.611615 0.791096
-0.92354429 -1.24180520 0.10212351 -0.052766 -0.637467 0.768669
-0.73270553 -1.21574557 0.12742831 -0.004157 -0.730265 0.683151
-0.87882513 -1.21295273 0.13062675 -0.012514 -0.738307 0.674348
-0.70308417 -1.18408287 0.16805635 -0.001354 -0.838040 0.545606
-0.92843968 -1.16051877 0.21011770 -0.088745 -0.913387 0.397303
-0.91293353 -1.14503765 0.25954640 -0.013072 -0.973256 0.229351
-0.81594354 -1.13861179 0.29763740 -0.009701 -0.994915 0.100246
-0.85090518 -1.13707161 0.31705025 -0.011206 -0.999372 0.033618
-0.86585087 -1.14420009 0.38973692 -0.012949 -0.975911 -0.217785
-0.79962230 -1.15413570 0.42445409 -0.008816 -0.940819 -0.338795
-0.77224904 -1.17627990 0.47179478 -0.006710 -0.865652 -0.500602
-0.73289996 -1.20606565 0.51391178 -0.004146 -0.761489 -0.648164
-0.89087790 -1.23071671 0.53975636 -0.012516 -0.677244 -0.735652
-0.84055448 -1.28614688 0.57999080 -0.009357 -0.487890 -0.872855
-0.70360005 -1.31013942 0.59177482 -0.001290 -0.403862 -0.914819
-0.89110672 -1.32268560 0.59702820 -0.011481 -0.361006 -0.932493
-0.75436735 -1.33693635 0.60283506 -0.006181 -0.310282 -0.950625
-0.80661976 -1.38655317 0.61410552 -0.007777 -0.141106 -0.989964
-0.90493333 -1.40631878 0.61566544 -0.011633 -0.072971 -0.997266
-0.80872786 -1.42939091 0.61717528 -0.006937 0.006937 -0.999952
-0.89033878 -1.47082210 0.61391401 -0.010082 0.146744 -0.989123
-0.77097100 -1.48671150 0.61048263 -0.003475 0.205017 -0.978752
-0.85308683 -1.50714803 0.60561925 -0.008526 0.276480 -0.960982
-0.85852516 -1.52873254 0.59828478 -0.008869 0.350971 -0.936344
-0.78789675 -1.58744442 0.56855792 -0.004074 0.549986 -0.835164
-0.85317272 -1.56878340 0.58000380 -0.009347 0.484714 -0.874622
-0.88823801 -1.60304284 0.55788547 -0.009633 0.604148 -0.796814
-0.79453206 -1.65745652 0.50376266 -0.004126 0.790824 -0.612029
-0.71939278 -1.68337572 0.46402243 -0.001323 0.879960 -0.475046
-0.83895242 -1.67343533 0.48016486 -0.006757 0.847295 -0.531080
-0.74050242 -1.70670354 0.40587351 -0.001210 0.961569 -0.274561
-0.78971654 -1.71802568 0.33276144 -0.007033 0.999708 -0.023109
-0.77471286 -1.71547067 0.28714779 -0.005512 0.991048 0.133389
-0.68632054 -1.69000840 0.20185696 0.001302 0.904847 0.425734
-0.71557647 -1.70331156 0.23411271 -0.001239 0.947936 0.318457
-0.91843659 -1.70454013 0.23719275 -0.013682 0.951537 0.307228
-0.68488854 -1.68377340 0.18898621 0.001323 0.882755 0.469832
-0.77102947 -1.65769792 0.14894579 -0.004117 0.791851 0.610700
-0.83876336 -1.63022447 0.11792743 -0.006932 0.697319 0.716727
-0.77367866 -1.59664166 0.08958271 -0.004096 0.583040 0.812433
-0.69390053 -1.53850806 0.05805163 0.001278 0.382163 0.924094
-0.82411855 -1.44439030 0.03646581 -0.007515 0.097694 0.995188
-0.93402326 -1.36748886 0.38345796 -0.142965 -0.021388 -0.989497
-0.92827427 -1.31279778 0.28903553 -0.066169 0.945823 -0.317869
-0.93853313 -1.43392777 0.24595487 -0.097455 -0.470326 0.877095
-0.94513696 -1.50594556 0.31048450 -0.006805 0.559390 0.828877
0.94704753 -1.39128590 0.36669728 -0.185757 0.658593 0.729212
0.95081621 -1.38515449 0.35510337 0.977584 0.172661 0.120490
0.95638013 -1.45366490 0.32001317 -0.995083 0.091262 0.038484
0.95378143 -1.40379024 0.29177031 -0.976148 -0.113159 0.185282
-0.91427761 -1.50872183 0.70073193 -0.315224 -0.687027 0.654696
-0.91024619 -1.45223510 0.70764363 -0.165420 0.766396 0.620705
-0.88434213 -1.45950413 0.71125734 -0.354456 -0.720347 0.596206
-0.85481083 -1.54045498 0.68819618 -0.410149 -0.234158 0.881447
-0.92177844 -1.56373835 0.67848468 -0.753279 -0.198718 0.626962
-0.83453190 -1.51359415 0.69999015 0.894505 -0.184120 0.407384
-0.80649823 -1.31806016 0.68960392 0.992678 0.030081 0.116982
-0.92623943 -1.41302228 0.69819045 -0.610794 0.614159 0.499740
-0.92809230 -1.39036095 0.69353509 -0.789460 0.272608 0.549943
-0.89527518 -1.37500477 0.70527542 -0.431562 0.870643 0.236081
-0.85230720 -1.34278071 0.69720513 -0.625206 0.082684 0.776068
-0.88463783 -1.21122921 0.63813800 0.471358 0.582068 0.662585
-0.84488279 -1.14191532 0.58597714 -0.532968 0.839172 -0.108327
-0.83080286 -1.17755210 0.62592304 0.139417 0.631126 0.763048
-0.90793103 -1.09503829 0.51546240 0.076212 0.800940 -0.593875
-0.80913645 -1.12025261 0.56716186 0.161115 0.796539 0.582724
-0.84245026 -1.03908610 0.37933207 0.265139 0.829527 0.491514
-0.92086321 -1.05074108 0.38724968 -0.605870 0.701102 -0.376001
-0.91750526 -1.05867624 0.43162048 -0.541270 0.723348 0.428712
-0.90658671 -1.06343925 0.43612304 0.881334 0.331067 0.337114
-0.90596068 -1.05689573 0.43404520 0.418506 0.719565 0.554148
-0.93785125 -1.11424613 0.46963322 -0.981012 0.177379 0.078433
-0.89970034 -1.08669722 0.50584573 -0.258117 0.211187 0.942749
-0.82340556 -1.07503426 0.17442055 0.647190 0.707914 -0.282846
-0.87965465 -1.04556119 0.25271672 -0.581442 0.638744 -0.503916
-0.90462583 -1.04808438 0.28790793 0.675708 0.737010 0.015325
-0.90263867 -1.08638334 0.13521780 0.472206 0.388401 -0.791307
-0.86511409 -1.11386597 0.09281366 0.541745 0.612628 -0.575499
-0.85236704 -1.12538433 0.07469677 -0.638655 0.608483 -0.471029
-0.88978302 -1.18159103 0.01925035 0.045057 0.028291 -0.998584
-0.93496150 -1.18533051 0.06015827 -0.949438 0.205100 -0.237699
-0.93797207 -1.21657431 0.04997031 -0.985769 0.103702 -0.132310
-0.83718753 -1.23791015 -0.01819761 0.121949 -0.304202 -0.944769
-0.88506812 -1.20533323 0.00139143 0.580458 0.091194 -0.809167
-0.85588861 -1.13614500 0.07545905 0.004132 0.783676 -0.621156
-0.93864882 -1.14798319 0.12897262 -0.988297 0.121040 -0.092836
-0.83257681 -1.19379997 0.01203546 -0.863762 0.317582 -0.391224
-0.88479310 -1.15384841 0.05018676 0.910515 0.327785 -0.252031
-0.81759828 -1.41923189 -0.05927350 -0.391203 0.049066 -0.918995
-0.87317747 -1.33524954 -0.05758132 0.280126 0.689909 -0.667499
-0.83704036 -1.39941514 -0.06828829 0.142967 -0.708814 -0.690755
-0.88658375 -1.32379949 -0.04378811 0.382761 0.519578 -0.763893
-0.88577598 -1.29288816 -0.03849097 0.655340 0.428555 -0.621989
-0.84273386 -1.37039304 -0.05729106 0.286224 0.498938 -0.818008
-0.93508720 -1.26251042 0.00627144 -0.954945 0.136421 -0.263570
-0.88352054 -1.23581004 -0.01097915 -0.935629 -0.040117 -0.350699
-0.84598231 -1.47628832 -0.06588943 -0.042933 0.357776 -0.932820
-0.87599063 -1.46527755 -0.05729759 -0.380691 -0.383824 -0.841281
-0.83455485 -1.53449929 -0.05135513 0.543171 -0.373532 -0.751957
-0.87906367 -1.38115740 -0.06550587 -0.553553 -0.026228 -0.832401
-0.87896007 -1.40673757 -0.06775225 -0.316723 0.444660 -0.837833
-0.92142576 -1.34226942 -0.04866951 -0.560557 0.737059 -0.377518
-0.93675387 -1.34414232 -0.01947918 -0.943103 0.074766 -0.323987
-0.83257681 -1.47701049 -0.06185490 -0.993394 -0.007633 -0.114497
-0.80649811 -1.59932876 -0.02214144 0.958438 -0.135417 -0.251114
-0.90155303 -1.51823807 -0.04578099 0.104265 -0.418448 -0.902236
-0.93379939 -1.50270915 -0.02947515 -0.933381 -0.078558 -0.350184
-0.89604384 -1.70367193 0.06172176 -0.182518 -0.719336 -0.670256
-0.85767412 -1.69822764 0.05371322 -0.055848 -0.711708 -0.700252
-0.80649811 -1.69202209 0.03774711 0.920792 -0.277243 -0.274370
-0.89620262 -1.65044582 0.01503609 -0.247462 -0.622596 -0.742386
-0.91324115 -1.65209305 0.00947440 -0.167527 0.172642 -0.970633
-0.88520223 -1.77294302 0.16291070 0.795087 -0.580035 -0.177191
-0.92571557 -1.71956766 0.08623776 -0.747581 -0.012529 -0.664052
-0.86492485 -1.76705885 0.14541924 0.759867 -0.448043 -0.471019
-0.80709082 -1.81073284 0.40642861 0.464987 -0.866499 0.181566
-0.93219948 -1.79243255 0.33331907 -0.910632 -0.413217 0.001295
-0.81486517 -1.81245255 0.30223101 -0.940919 -0.338631 0.001250
-0.92984509 -1.78512013 0.23219469 -0.810214 -0.577477 -0.100368
-0.93599689 -1.72296429 0.25531012 -0.961642 0.266631 0.064446
-0.81235707 -1.77968955 0.49552950 -0.105868 -0.882231 0.458760
-0.93933946 -1.73681188 0.39994603 -0.995773 0.087767 -0.027088
-0.86306572 -1.80357218 0.38705808 0.472577 -0.842018 0.260148
-0.93483859 -1.77701402 0.39873198 -0.947087 -0.315696 0.057985
-0.86491895 -1.80371952 0.39319161 0.430908 -0.866351 0.252497
-0.84147382 -1.69110799 0.61323148 0.026821 -0.343568 0.938745
-0.85230798 -1.69677198 0.59568429 -0.629577 -0.445881 0.636257
-0.82421356 -1.71334553 0.58685893 0.740425 -0.493067 0.456788
-0.88470727 -1.74859202 0.54536986 0.574136 -0.262687 0.775477
-0.84395850 -1.71172845 0.58565813 -0.391833 0.336078 0.856457
-0.81688720 -1.53660297 0.68930954 -0.504225 -0.245173 0.828038
-0.81486517 -1.53994167 0.69477862 -0.659545 -0.219848 0.718795
-0.93649668 -1.59885776 0.57604939 -0.983288 0.095079 -0.155256
-0.88661450 -1.65582252 0.63570827 0.670407 -0.692701 0.265933
-0.87258422 -1.63162351 0.65184700 -0.206930 0.556412 0.804727
-0.80569828 -1.53895712 -0.04127038 0.873337 -0.149673 -0.463552
-0.93731076 -1.59971786 0.01869791 -0.990313 -0.068019 -0.121051
-0.80524170 -1.61336398 -0.00975618 0.553816 -0.319448 0.768922
-0.67284453 -1.46576178 0.67389882 0.966208 -0.030615 0.255941
-0.79454315 -1.46690214 0.70633250 0.670430 -0.082895 0.737328
-0.77228057 -1.48050892 0.71178240 -0.155943 0.643453 0.749433
-0.68592018 -1.52458954 0.68932539 0.620439 0.373580 0.689560
-0.74045432 -1.52294910 0.69899255 -0.054622 0.393010 0.917911
-0.79454315 -1.33703518 0.70429480 0.910831 0.115418 0.396316
-0.68599141 -1.44185376 0.70192617 0.643835 -0.623768 0.443159
-0.68514234 -1.41006291 0.70089400 0.516909 0.713035 0.473695
-0.67289811 -1.42764056 0.62853789 0.979109 -0.005807 -0.203255
-0.72673321 -1.39947021 0.70332682 0.348757 0.291879 0.890604
-0.76593196 -1.19330478 0.63803524 0.177809 0.838241 0.515496
-0.74430335 -1.24606359 0.66674441 -0.313560 0.787878 0.530027
-0.67408448 -1.12944996 0.51917088 0.952308 0.256546 0.165210
-0.67011940 -1.14875412 0.49377745 0.999769 -0.017081 -0.013062
-0.76359427 -1.07680464 0.48681000 -0.108494 0.530895 0.840464
-0.68626642 -1.05917048 0.40168655 0.558502 0.359851 0.747384
-0.79000694 -1.04844522 0.37468663 -0.371126 0.917310 0.144249
-0.75994068 -1.05632401 0.44944286 0.444101 0.693596 0.567185
-0.69346136 -1.08424795 0.49834523 0.453097 0.637011 0.623635
-0.75904548 -1.04957724 0.40071166 0.768976 0.336931 -0.543281
-0.71621948 -1.04474115 0.29639423 -0.064743 0.735189 0.674763
-0.73409009 -1.04633272 0.35429862 -0.521939 0.375601 0.765835
-0.67036957 -1.21556139 0.06190671 0.997664 0.043842 -0.052396
-0.76162249 -1.22723627 -0.00722633 0.474137 0.073693 -0.877362
-0.78519487 -1.22233474 -0.00335508 -0.651433 0.377666 -0.658030
-0.79454315 -1.18958545 0.01723888 0.817363 0.344403 -0.461850
-0.67031652 -1.17500770 0.13018833 0.989826 -0.112559 0.087030
-0.79710644 -1.40286148 -0.06851245 0.480842 0.065129 -0.874385
-0.80291033 -1.38970292 -0.05748288 -0.942721 0.045014 -0.330531
-0.71600294 -1.26269603 -0.03118253 0.184851 0.246918 -0.951242
-0.70922494 -1.23691595 -0.00990428 0.747702 -0.052897 -0.661924
-0.78519487 -1.31622517 -0.04505385 -0.827914 0.153097 -0.539556
-0.80291033 -1.53455019 -0.05127000 -0.682402 -0.196519 -0.704065
-0.67020476 -1.44750309 -0.00626116 0.999960 -0.000987 -0.008884
-0.67813921 -1.44831252 0.02963958 0.830559 0.031891 0.556017
-0.77683145 -1.54036427 -0.05238995 0.570424 -0.231589 -0.788025
-0.76442176 -1.42816925 -0.06904403 0.307550 -0.337555 -0.889646
-0.70011878 -1.59360158 -0.02764954 -0.131082 0.199805 -0.971028
-0.71699488 -1.58993542 -0.02600967 0.186832 -0.850460 -0.491743
-0.74432170 -1.58317256 -0.03224644 -0.737682 -0.104542 -0.667006
-0.72144914 -1.54636288 -0.04925107 -0.466307 -0.440129 -0.767362
-0.68711793 -1.50929153 -0.04818474 0.610437 -0.647231 -0.456573
-0.67714936 -1.48486793 -0.03749792 0.898901 -0.086990 -0.429429
-0.67085218 -1.48546708 -0.01238941 0.987915 -0.030837 -0.151899
-0.68199897 -1.70094311 0.06912243 0.819131 -0.408770 -0.402408
-0.78947681 -1.80098677 0.24385375 -0.084963 -0.976463 -0.198248
-0.80105859 -1.81069231 0.23973711 -0.472252 -0.859588 -0.195158
-0.70380700 -1.77676415 0.15321581 -0.490490 -0.819573 -0.296175
-0.79454315 -1.77681839 0.15953104 0.968210 -0.233532 -0.089626
-0.71953559 -1.72776461 0.08801748 -0.241002 -0.100736 -0.965282
-0.74176204 -1.74206698 0.09866383 -0.599574 0.171524 -0.781723
-0.75703663 -1.77678895 0.14672866 0.713247 -0.692573 -0.107799
-0.75708705 -1.77949286 0.16708894 0.682199 -0.666071 -0.301587
-0.67066646 -1.74129474 0.28794748 0.993934 0.109713 0.007604
-0.79582959 -1.81971657 0.32817549 0.576839 -0.816848 0.004091
-0.72389102 -1.81506884 0.27212372 -0.420134 -0.739766 0.525580
-0.75648344 -1.80170572 0.24602838 0.561318 -0.816058 -0.137738
-0.70769984 -1.79169929 0.43218422 0.841652 -0.312702 0.440272
-0.76398426 -1.76947224 0.50522524 -0.103370 -0.981404 -0.161743
-0.66996735 -1.70795298 0.47872379 0.998070 0.053978 -0.030694
-0.71007800 -1.76203954 0.50950092 0.673424 -0.380344 0.633907
-0.67662942 -1.62497914 0.62830150 0.911454 -0.211665 0.352774
-0.74109286 -1.61902463 0.65345293 -0.648384 -0.714967 -0.261573
-0.74941325 -1.63055873 0.64661264 -0.209971 -0.657910 0.723234
-0.69267297 -1.69909680 0.58428890 0.298008 -0.681391 0.668504
-0.67735583 -1.70180333 0.56486112 0.904252 -0.319061 0.283774
-0.80399966 -1.25946724 0.66490656 -0.960741 0.088506 0.262953
-0.80442804 -1.09315014 0.50805080 -0.662669 0.659396 0.355059
0.73589939 -0.75948137 1.08718300 -0.799341 0.322597 -0.506938
0.66392446 -0.67943949 1.21689868 -0.544903 0.428966 -0.720464
0.66666639 -0.72786784 1.18485999 -0.528898 0.452631 -0.717909
0.67148316 -0.51312089 1.29306793 -0.769946 0.228651 -0.595736
0.66642964 -0.60567474 1.25655496 -0.598973 0.369230 -0.710563
0.67058271 -0.42249414 1.32411885 -0.971552 -0.057728 -0.229684
0.63231015 -0.31783262 1.41374004 -0.823715 0.191948 -0.533526
0.61414814 -0.25899222 1.46555996 -0.739433 0.398408 -0.542688
0.57081121 1.73125029 1.42135251 -0.948117 -0.261783 -0.180400
0.57629466 1.82671654 1.34211230 -0.906539 -0.188204 -0.377844
0.60292464 1.76162362 1.30282915 -0.929109 -0.081783 -0.360650
0.59517729 1.74730253 1.32690680 -0.931229 -0.129907 -0.340494
0.52886724 1.78989291 1.47316170 -0.731036 -0.492330 -0.472438
0.50720483 1.84555745 1.45001841 -0.718620 -0.469675 -0.512826
0.62326396 1.80110466 1.24339604 -0.886561 -0.129915 -0.443995
0.63411111 2.00495386 1.17433453 -0.714207 -0.162943 -0.680704
0.62721461 1.99185205 1.18455267 -0.739031 -0.175960 -0.650286
0.65686369 1.85185683 1.17741930 -0.774158 -0.100977 -0.624887
0.56800443 2.00726128 1.25471759 -0.739885 -0.367493 -0.563489
0.53055555 2.02556133 1.28154826 -0.493953 -0.544186 -0.678139
0.56049532 2.09232068 1.20346260 -0.484042 -0.464218 -0.741758
0.56454104 2.06352019 1.21930230 -0.642636 -0.384921 -0.662461
0.63528293 -0.25889114 1.41980553 0.051859 -0.553630 0.831146
0.67619270 -0.86005449 1.08542967 0.994980 0.098739 0.016276
0.66217768 -0.68879592 1.20117152 0.724296 -0.349941 0.594085
0.70142531 -0.90923035 1.09735191 0.113008 -0.793994 -0.597330
0.70556390 -0.87015527 1.10744262 -0.770799 -0.322101 0.549655
0.69044149 -0.87581152 1.08361173 -0.765040 -0.252919 0.592238
0.70780575 -0.78245735 1.18230355 -0.781690 -0.417660 0.463164
0.62102622 -0.35907727 1.42793095 -0.749358 -0.446321 0.489142
0.64039010 -0.51979887 1.31452382 -0.712327 -0.456620 0.533000
0.61502248 -0.24944659 1.52609420 -0.759377 -0.487116 0.431352
0.58983076 -0.22591525 1.50962746 -0.698890 -0.548770 0.458699
0.65488803 -0.19847092 1.51163781 0.823510 0.124774 -0.553410
0.64551985 -0.24247035 1.46247113 0.817948 0.366885 -0.443121
0.67476952 -0.41236427 1.35619330 0.815962 0.410376 -0.407183
0.68055940 -0.47839212 1.29893363 0.913206 0.334311 -0.233005
0.74759531 -0.68490261 1.19794941 0.774633 0.501807 -0.384881
0.80175227 -0.80662239 1.08861399 0.541523 0.839430 -0.045939
0.52500105 1.76220608 1.54574656 0.851251 0.330267 -0.407794
0.54933316 1.81492448 1.50798619 -0.520959 0.601885 0.605257
0.59758514 2.14193225 1.20531273 -0.521303 0.639398 0.565167
0.57917166 2.06728816 1.27547038 -0.517717 0.642509 0.564935
0.67828506 2.07102561 1.17491996 0.409073 0.233543 -0.882109
0.61835730 2.11924577 1.16752625 0.085794 0.094945 -0.991779
0.64266396 2.00789428 1.16863453 -0.343744 -0.047994 -0.937836
0.66131943 2.00164557 1.16135645 -0.156191 0.005618 -0.987711
0.09043558 -2.37273288 0.49790782 -0.000983 0.006883 -0.999976
0.27159208 -2.34958220 0.49266493 -0.010966 0.010966 0.999880
-0.05592508 -2.39698577 0.63727653 0.023387 0.999540 0.019320
-0.12108599 -2.38099217 0.63897145 0.000991 0.014865 -0.999889
-0.06763361 -2.38164091 0.49238360 0.000983 0.006883 0.999976
0.17108651 -2.31008792 0.75575298 -0.000981 0.004907 0.999987
0.03360262 -2.32102513 0.75575930 0.000981 0.004907 0.999987
0.41375697 -2.19750094 0.88303524 -0.656297 0.606198 -0.449221
0.41800249 -2.15322065 0.93367469 -0.209594 0.180593 -0.960967
-0.41746789 -2.28542757 0.78008425 0.664083 0.728202 -0.169456
-0.45218641 -2.11238408 0.93423319 0.054726 0.003098 -0.998497
-0.31639028 -2.27503657 0.77366716 0.000979 0.000979 -0.999999
-0.29634160 -2.28135180 0.75557166 -0.004916 0.000983 0.999987
-0.43439734 -2.16793418 0.89617705 -0.979863 0.001154 -0.199666
0.38509753 -2.19825149 0.82976884 0.011496 -0.061658 -0.998031
0.19066796 -2.24991584 0.81818086 -0.000987 0.010858 0.999941
0.20524859 -2.24335742 0.82978505 -0.005143 0.048346 -0.998817
0.20425779 -2.25729775 0.82222921 -0.098071 0.862743 -0.496041
0.27845091 -2.21249723 0.81963319 0.024472 -0.185289 0.982379
0.19691257 -2.22272182 0.81961274 0.022215 -0.192919 0.980963
0.21522723 -2.22933340 0.81862897 0.007372 -0.072667 0.997329
0.31713641 -2.15623593 0.87778425 0.047888 -0.335213 -0.940925
0.32560655 -2.16970682 0.87926972 0.005073 -0.033483 -0.999426
0.21264049 -2.18645549 0.86794043 0.009405 -0.063742 0.997922
0.08019282 -2.20489740 0.87928265 -0.000989 0.010880 -0.999940
0.37207666 -2.19034886 0.86820662 -0.091610 0.474961 0.875225
-0.37713018 -2.18138695 0.87922764 0.009443 0.066098 -0.997768
-0.41204780 -2.16986632 0.87934130 0.005023 0.025117 -0.999672
-0.25603226 -2.19290257 0.87922984 0.005073 0.033483 -0.999426
-0.33870214 -2.18354893 0.86772329 -0.000991 -0.014865 0.999889
-0.30040449 -2.18266821 0.86779898 -0.005093 -0.039723 0.999198
-0.16409172 -2.19965267 0.86767149 -0.003050 -0.037613 0.999288
-0.09363717 -2.21758008 0.86775559 -0.001024 0.048149 0.998840
-0.37593001 -2.19193482 0.82398081 -0.134381 -0.813670 0.565582
-0.23781362 -2.25225878 0.82680303 0.076587 0.640150 -0.764423
-0.32797343 -2.22886729 0.81830674 -0.000987 -0.010858 0.999941
-0.16684555 -2.24217129 0.81839663 -0.005133 -0.046199 0.998919
-0.12355534 -2.26723194 0.82479376 0.098604 0.719663 -0.687286
0.87441057 -0.32857591 0.35818776 -0.904847 -0.001302 0.425734
0.87960142 -0.63369453 0.36874092 -0.909201 -0.003891 0.416339
0.87505502 0.52752727 0.35985640 -0.911072 0.001292 0.412244
0.87811053 0.29083958 0.36703679 -0.917945 0.001284 0.396706
0.86472368 -0.74647611 0.37864327 -0.002950 -0.004916 -0.999984
0.88072151 -0.52060276 0.37809700 -0.237255 -0.001180 -0.971447
0.86349308 -0.53214025 0.37831220 -0.002938 -0.000979 -0.999995
0.87105852 -0.32185999 0.37820747 -0.010858 -0.000987 -0.999941
0.87789971 0.70444864 0.37917256 -0.031203 -0.001007 -0.999513
0.86407888 0.38219962 0.37866491 -0.002938 0.000979 -0.999995
0.86167490 -0.88340169 0.34280533 -0.007089 0.029369 0.999544
0.85678571 -0.16721964 0.34268823 -0.006883 -0.000983 0.999976
0.86124003 -0.53694975 0.34274703 -0.023017 -0.001001 0.999735
0.84570783 0.55461937 0.34266457 -0.000978 0.000978 0.999999
0.85308582 0.83205831 0.34267744 -0.004907 -0.000981 0.999987
0.88292688 -0.70640510 0.37778533 -0.837225 -0.004071 -0.546843
0.88274807 -0.58120739 0.37636444 -0.999123 -0.003055 0.041757
0.88113123 -0.07358617 0.37796170 -0.342448 0.001254 -0.939536
0.88326192 0.85037750 0.37843448 -0.354850 0.013990 -0.934819
0.86829692 -0.59636360 0.34555343 -0.844099 -0.004052 0.536172
0.86536038 0.24383652 0.34294116 -0.242814 0.001184 0.970072
0.12488907 1.49509990 1.74241185 -0.014417 0.418100 -0.908287
0.24572931 1.48475659 1.72278917 0.012545 0.684397 0.729001
0.20508274 1.57169902 1.71498358 0.016337 -0.322963 0.946270
0.00643484 1.51183856 1.74333274 -0.003545 0.232790 -0.972520
0.10835385 1.47354388 1.74190676 -0.006942 0.731638 -0.681659
0.02736618 1.50075328 1.72476697 0.004058 0.534243 0.845321
-0.31000111 1.58554780 1.73259211 0.018092 -0.641584 -0.766839
-0.38431972 1.57022941 1.73179209 0.028188 -0.460408 -0.887260
-0.40088847 1.47337317 1.73342526 0.017389 0.884174 -0.466833
-0.30799961 1.51856923 1.71859252 -0.021345 0.317662 0.947964
-0.16759276 1.58468878 1.73501992 0.015286 -0.629524 -0.776830
-0.24362262 1.54361296 1.73723722 0.021226 -0.132939 -0.990897
-0.25324905 1.51323926 1.73946118 0.020051 0.208762 -0.977761
-0.25368440 1.47214627 1.72441018 -0.009678 0.783925 0.620780
-0.16490898 1.53163254 1.71956885 -0.017171 0.168272 0.985591
-0.24846880 1.58194089 1.71388698 -0.017269 -0.447678 0.894028
-0.02228285 1.56200135 1.73956037 -0.001257 -0.350710 -0.936483
-0.13440335 1.57374763 1.73645735 0.017608 -0.505224 -0.862809
-0.12024815 1.47467530 1.74456155 0.006892 0.613353 -0.789779
-0.05290373 1.50210822 1.72467864 -0.004040 0.518447 0.855100
-0.03499453 1.53269351 1.72184134 -0.001125 0.163122 0.986605
-0.04370963 1.56387651 1.71891701 -0.003500 -0.215817 0.976427
-0.08013324 1.57396793 1.71736896 -0.008835 -0.347095 0.937788
0.47666448 1.61016917 1.72774470 -0.015702 -0.252440 -0.967485
0.51218110 1.36239028 1.65535295 -0.165178 0.762245 -0.625859
0.52819479 1.39429569 1.63497949 -0.999186 0.021654 -0.034028
0.52278024 1.36839211 1.63494861 -0.019394 0.160852 0.986788
0.48230907 1.67617917 1.65744460 0.987164 -0.091032 0.131228
0.51699013 1.68120551 1.63463891 -0.706063 -0.597438 -0.380188
0.52432019 1.42652118 1.65050995 -0.969306 -0.010783 -0.245621
0.50362515 1.55314803 1.71606207 -0.951359 -0.034022 -0.306199
0.50304711 1.41740561 1.71442664 -0.580267 0.427303 -0.693327
0.50555807 1.50275123 1.71484792 -0.953236 -0.026236 -0.301087
0.47758642 1.51955748 1.68703640 0.985231 -0.003401 0.171197
0.48068532 1.53586364 1.66932690 0.984919 0.001131 0.173011
0.51094943 1.45796251 1.69844627 -0.942840 -0.287900 -0.167828
0.51779085 1.51903486 1.67373264 -0.965287 -0.025627 -0.259932
0.52531129 1.58963883 1.63647580 -0.964175 -0.144431 -0.222502
-0.51858568 1.42674303 1.72340286 0.060563 0.542254 -0.838029
-0.50527418 1.45719850 1.73811507 0.012909 0.210073 -0.977601
-0.50547951 1.51976693 1.68907893 -0.984846 -0.003400 0.173396
-0.50922900 1.41154158 1.66957319 -0.979437 0.010481 0.201478
-0.51323587 1.65978777 1.64059365 -0.985231 0.003401 0.171197
-0.50886309 1.55024624 1.66952944 -0.985231 0.003401 0.171197
-0.54688996 1.49708354 1.67271399 0.965510 -0.023133 -0.259336
-0.55680102 1.55009925 1.62912655 0.975002 -0.025061 -0.220778
-0.55800349 1.51834953 1.62611198 0.978585 0.017579 0.205093
0.79741299 -1.91891146 0.89947033 -0.651947 0.618599 -0.438522
0.77804291 -1.95112705 0.88313228 -0.628725 0.618665 -0.471125
0.83569533 -1.91104448 0.84345365 -0.748674 0.563535 -0.349164
0.54643005 -2.10297823 0.88617861 -0.329374 0.699311 -0.634410
0.54068923 -2.08153152 0.91260505 -0.315693 0.701001 -0.639481
0.65590966 -2.09099960 0.83240128 -0.438683 0.678874 -0.588802
0.71217710 -2.04998469 0.83304322 -0.522552 0.660331 -0.539354
0.53156561 -2.17782331 0.81117463 -0.336927 0.711290 -0.616885
0.59557694 -2.02928901 0.93468893 -0.008990 0.014983 -0.999847
0.54450291 -2.05534673 0.93468869 -0.015374 0.033823 -0.999310
-0.78587705 1.99610925 0.94713360 -0.872697 0.429612 0.232021
-0.79852080 1.96466756 0.95482004 -0.900921 0.408474 0.146595
-0.79855895 1.96115410 0.96496642 -0.896068 0.429044 0.113943
-0.80057353 1.97312176 0.93008339 -0.884868 0.351234 0.306011
-0.70948577 2.08781719 0.98918670 -0.758257 0.634645 0.149239
-0.68570817 2.12323213 0.98031920 -0.888413 0.442074 0.123667
-0.68495667 2.12353182 0.98605239 -0.894257 0.429413 0.126131
-0.68559092 2.14478350 0.90015495 -0.752735 0.428026 0.500184
-0.70508373 2.12029576 0.90505672 -0.518484 0.609683 0.599550
-0.45610967 2.19473982 1.01880610 -0.716799 0.683739 -0.136748
-0.51214653 2.17255759 1.01283884 -0.229165 0.964564 0.130766
-0.64456946 2.15917635 0.97507411 0.299890 0.949432 0.092979
-0.62832844 2.14436221 1.04441130 -0.012116 0.992424 0.122263
-0.83247203 2.03685141 0.89256734 0.017563 -0.040292 0.999034
-0.88323241 1.96422732 0.94690156 0.901649 0.431570 -0.027886
-0.84587556 1.97804546 1.05164731 0.546408 0.392167 -0.740030
-0.80292225 2.04771781 1.09043574 -0.121271 0.215735 -0.968892
-0.80667549 2.00578570 1.07972515 0.057317 0.294229 -0.954015
-0.77809805 2.06287074 1.08544517 -0.361125 0.218995 -0.906438
-0.44003239 2.23983264 1.00568283 -0.983333 -0.017292 -0.180989
-0.45734212 2.21940160 0.91630542 -0.655200 0.333290 0.677961
-0.49733126 2.23329043 0.89919132 -0.175335 0.014898 0.984396
-0.63455826 2.22132564 0.89605248 0.018338 -0.091688 0.995619
-0.67856270 2.21566963 0.99146777 0.971576 0.234100 -0.035176
-0.65218431 2.15644956 1.02848721 0.655354 0.742334 0.139469
-0.59661353 2.16587138 1.06663036 -0.205657 0.433506 -0.877370
-0.65978545 2.15987182 1.06496978 0.868298 0.489557 -0.079956
0.87266290 1.97067440 0.53789985 -0.929239 -0.365105 0.056677
0.82407403 2.17573953 0.54963791 -0.964330 -0.244604 0.101171
0.86176431 1.87085402 0.39696980 -0.718949 0.570882 0.396492
0.86572909 1.97243237 0.48272735 -0.919209 -0.358956 0.161882
0.83760554 1.99252939 0.41321337 -0.823238 -0.410826 0.391792
0.82165045 2.06050801 0.44502476 -0.887070 -0.276742 0.369488
0.63097841 2.28224254 0.41975310 -0.278718 -0.603623 0.746964
0.48983249 2.39072680 0.56507456 -0.109998 -0.992248 -0.057834
0.31057507 2.40134025 0.53005159 -0.034373 -0.998887 -0.032289
0.41257739 2.33299613 0.41134363 -0.119665 -0.778562 0.616054
0.23807409 2.35010004 0.42315337 -0.020714 -0.813372 0.581375
0.51378602 2.29772830 0.39019200 0.291208 -0.517878 0.804363
0.50571364 2.37132144 0.47908002 -0.691635 -0.649522 -0.315852
0.82462788 1.90797317 0.34727815 -0.678382 -0.240818 0.694122
0.20481065 2.41009784 0.50232106 -0.024523 -0.930581 -0.365263
0.05965259 2.39809036 0.46778935 -0.006942 -0.728957 0.684525
0.43508649 2.37866759 0.45728385 -0.001372 -0.621510 0.783405
0.09677321 2.32610106 0.38484064 -0.012366 -0.817552 0.575722
0.02250034 2.35230803 0.42105886 -0.004094 -0.814648 0.579942
0.18799919 2.32618713 0.38781863 -0.017942 -0.815649 0.578269
0.83072919 2.11354470 0.56914449 -0.035582 -0.005083 -0.999354
0.44056916 2.38645124 0.57057375 -0.003008 -0.025067 -0.999681
0.83866376 2.10792017 0.56565493 -0.977694 -0.177199 -0.112763
0.68087840 2.33913755 0.56025791 -0.421806 -0.896159 0.137761
0.37543467 2.39873195 0.56641644 -0.047822 -0.985610 -0.162130
0.25574276 2.40279484 0.56462884 -0.026770 -0.996907 -0.073885
0.01457688 2.40689230 0.56498826 -0.003419 -0.983442 -0.181190
0.15618229 2.38067245 0.46295816 -0.012521 -0.685875 0.727612
-0.92806935 1.87503660 0.51789010 0.974548 0.013026 0.223803
-0.88849014 1.99449587 0.51008612 0.922542 -0.368743 0.113776
-0.87347120 2.05676007 0.53764284 0.972417 -0.203060 0.114773
-0.64438772 2.34172130 0.48631814 0.313911 -0.838658 0.445098
-0.84945035 1.98784935 0.38334906 0.697116 -0.405685 0.591141
-0.65570158 2.26629138 0.40683883 0.265224 -0.544573 0.795673
-0.66442144 2.29053569 0.42900929 0.293606 -0.649784 0.701125
-0.56961966 2.37934422 0.52409625 0.214009 -0.954293 0.208625
-0.44117239 2.32114911 0.39680988 0.135853 -0.765850 0.628505
-0.33198050 2.40149045 0.56096572 0.030388 -0.998614 -0.042962
-0.37105769 2.40026402 0.51843983 0.038772 -0.998650 -0.034581
-0.40021452 2.39899969 0.56143385 0.046261 -0.997301 -0.057019
-0.38235027 2.39520383 0.47213078 0.031818 -0.831416 0.554739
-0.46873173 2.39469552 0.47950098 0.084679 -0.892599 0.442829
-0.39469048 2.33531976 0.40859050 0.058255 -0.797104 0.601025
-0.08072653 2.40688229 0.54731607 0.009313 -0.998563 -0.052774
-0.02117644 2.41063905 0.50568432 -0.001384 -0.709868 -0.704333
-0.17838424 2.33016777 0.39203349 0.015148 -0.816607 0.576995
-0.90467232 1.92150843 0.56820005 0.018940 -0.000997 -0.999820
-0.71175611 2.33850288 0.56400293 0.427173 -0.899966 0.087093
-0.31019571 2.38042283 0.46486160 -0.005245 -0.070277 0.997514
-0.86917752 1.84131002 0.54922372 0.010923 0.999916 -0.006951
-0.88701516 1.86281109 0.42820665 0.062049 0.986936 0.148684
-0.72032928 1.84598851 0.52791935 0.005815 0.978074 0.208175
-0.55758941 1.83748972 0.56358236 0.001166 0.975939 0.218041
-0.13615562 1.84211481 0.54489160 0.001177 0.973308 0.229498
-0.69552678 1.85122955 0.50046051 0.003408 0.984778 0.173784
-0.58910382 1.84504485 0.53172326 0.001165 0.977028 0.213106
-0.66472125 1.86423361 0.40890333 0.005439 0.993188 0.116398
-0.77597618 1.86368084 0.41476345 0.007677 0.992533 0.121736
-0.08561117 1.85477209 0.47802910 0.001117 0.988229 0.152980
-0.53477699 1.85209680 0.49554735 0.003389 0.986112 0.166046
-0.66311449 1.85870516 0.45174050 0.003320 0.990382 0.138321
-0.39345232 1.85879886 0.45079687 0.003312 0.990424 0.138019
-0.21049666 1.85781050 0.45748276 0.001104 0.990125 0.140185
-0.71267366 1.86628878 0.39028916 0.005367 0.994991 0.099821
-0.09086922 1.86471868 0.40340537 0.001077 0.994296 0.106647
0.01590499 1.86191869 0.42681363 0.001089 0.992394 0.123096
-0.54419124 1.86061609 0.43777198 0.003301 0.991385 0.130938
0.05653282 1.86904633 0.33127776 0.000979 0.999999 0.000979
-0.77091944 1.86890948 0.35380933 0.005093 0.999277 0.037689
-0.02624619 1.86906743 0.33569288 0.002956 0.999972 0.006896
-0.33333576 1.86758363 0.37405062 0.001049 0.997224 0.074451
-0.19971183 1.86710310 0.37969914 0.001055 0.996523 0.083307
-0.56767696 1.86889946 0.35269883 0.005063 0.999429 0.033416
-0.37913230 1.84073997 0.55050910 0.001172 0.974073 0.226229
0.82816851 1.83951545 0.55629057 -0.007372 0.997329 -0.072667
0.86460823 1.86268818 0.43191087 -0.215385 0.956523 0.196656
0.16710480 1.84993410 0.50701326 -0.001137 0.983924 0.178585
0.76750433 1.85185480 0.49718171 -0.005671 0.985601 0.168993
0.23214464 1.84695077 0.52268231 -0.001152 0.979955 0.199215
0.02291377 1.84409738 0.53621775 -0.001164 0.976541 0.215328
0.58397299 1.85609162 0.47012237 -0.003345 0.988939 0.148285
0.77682179 1.86059916 0.43825233 -0.005514 0.991338 0.131223
0.13466969 1.86467862 0.40376434 -0.001077 0.994066 0.108776
0.21828479 1.86538982 0.39740553 -0.001073 0.994789 0.101947
0.11992587 1.86091852 0.43474051 -0.001093 0.991782 0.127937
0.49080622 1.86085653 0.43575743 -0.003295 0.991705 0.128493
0.07021462 1.86306500 0.41778871 -0.001085 0.992979 0.118289
0.54217529 1.85516751 0.47574705 -0.001114 0.988281 0.152643
0.00875412 1.85470724 0.47840741 -0.001117 0.988229 0.152980
0.08274239 1.85871184 0.45105398 -0.001102 0.990769 0.135556
0.51572621 1.85652709 0.46670529 -0.001110 0.989363 0.145462
0.21451418 1.86904430 0.33520988 0.000985 0.999960 0.008867
0.61594945 1.86910856 0.34022748 -0.002985 0.999852 0.016913
0.41554993 1.86785161 0.37092230 -0.001042 0.997558 0.069839
-0.07431278 1.86874413 0.35456938 -0.001009 0.999511 0.031266
-0.91640812 -0.59971774 0.52777904 -0.998260 -0.001034 -0.058965
-0.91798455 -0.57412052 0.55720937 -0.998734 -0.001026 -0.050296
-0.92048353 -0.66915762 0.61721849 -0.999291 -0.003044 -0.037537
-0.92174357 -0.04518032 0.63076705 -0.999040 -0.001018 -0.043791
-0.91906929 -0.01392010 0.57423109 -0.998629 -0.001026 -0.052343
-0.92042500 -0.10762759 0.60314029 -0.998940 -0.001022 -0.046011
-0.91829395 0.01911521 0.55963522 -0.998513 -0.001028 -0.054502
-0.85725832 -0.37119162 1.10092938 -0.883833 -0.006625 0.467756
-0.85894281 -0.54101086 1.09515858 -0.873508 -0.006668 0.486764
-0.84932172 -0.60063183 1.11364484 -0.916683 -0.009050 0.399513
-0.84521061 -0.26007035 1.12872589 -0.911587 -0.006484 0.411057
-0.89730221 -0.24086925 0.45565087 -0.861485 0.001340 -0.507781
-0.88667870 -0.67596108 0.43362534 -0.978290 -0.001158 -0.207235
-0.84197718 -0.70165235 1.12882924 -0.726298 -0.012546 0.687265
-0.84231257 -0.43435046 1.13211834 -0.796814 -0.009633 0.604148
-0.90783256 -0.46333033 0.38083366 -0.048051 -0.001022 -0.998844
-0.91884369 0.28275341 0.57760477 -0.998070 0.030694 -0.053978
-0.88633096 0.27683955 0.43491584 -0.982742 0.026813 -0.183026
-0.92164361 -0.79453117 0.66717684 -0.999562 -0.011163 -0.027399
-0.92360163 -0.74831456 0.73272157 -0.999671 -0.005034 -0.025168
-0.91445643 -0.73201817 0.49895144 -0.996669 -0.005285 -0.081382
-0.91782808 -0.68359119 0.55602610 -0.998730 -0.003079 -0.050296
-0.91284162 0.20887834 0.48280743 -0.964758 0.003604 -0.263116
-0.90348238 -0.80687159 0.39492005 -0.863499 -0.017567 0.504045
-0.90070724 -0.78546548 0.39965296 -0.856281 -0.006742 0.516466
-0.87956947 -0.48294827 1.06581891 -0.777723 -0.009670 0.628533
-0.87491727 -0.45076129 1.07221091 -0.794477 -0.009638 0.607217
-0.88949305 -0.35549927 1.05582142 -0.762843 -0.006922 0.646547
-0.92399681 -0.16627018 1.01474047 -0.877500 -0.009349 0.479486
-0.90813321 -0.28689504 1.03494704 -0.770335 -0.009681 0.637566
-0.92251372 0.40276396 0.64782876 -0.998940 -0.001022 -0.046011
-0.92325902 0.60434216 0.66825169 -0.999131 0.001016 -0.041673
-0.92376494 0.58280605 0.67946231 -0.999131 0.001016 -0.041673
-0.92894840 0.48363975 0.80447465 -0.999120 0.003062 -0.041843
-0.92857331 0.59736782 0.80744117 -0.999291 0.003044 -0.037537
-0.93013436 0.56807524 0.84599185 -0.999277 0.005093 -0.037689
-0.92246717 0.70279044 0.65045023 -0.999131 0.001016 -0.041673
-0.92241883 0.62037957 0.64860189 -0.999131 0.001016 -0.041673
-0.92732024 0.58774543 0.77408606 -0.999291 0.003044 -0.037537
-0.92451942 0.71878135 0.70402676 -0.999298 0.001012 -0.037461
-0.91731930 0.45608947 0.54331934 -0.998386 -0.001032 -0.056785
-0.91899276 0.48610061 0.57431430 -0.998629 -0.001026 -0.052343
-0.92027867 0.68711144 0.60043699 -0.998840 -0.001024 -0.048149
-0.91944736 0.60747194 0.58297890 -0.998730 -0.003079 -0.050296
-0.91422176 0.52298623 0.49328336 -0.996315 -0.001059 -0.085761
-0.90973341 0.49259013 0.47674626 -0.860313 0.001338 -0.509765
-0.90045130 0.58028966 0.46217936 -0.850780 0.001344 -0.525521
-0.89475083 0.61655831 0.45272550 -0.864020 -0.001335 -0.503455
-0.90010083 0.32937324 1.04668999 -0.121703 -0.984470 0.126523
-0.91504508 0.48079833 1.03494632 -0.807966 -0.001367 0.589227
-0.92177999 0.55457497 1.02452075 -0.857723 0.004027 0.514097
-0.85099739 0.62155533 1.12785637 -0.914819 -0.001290 0.403862
-0.85946363 0.77346486 1.11063206 -0.886654 -0.001317 0.462431
-0.84823984 0.87403351 1.13398826 -0.919790 0.006432 0.392358
-0.85246044 0.96875739 1.12248540 -0.906811 0.009133 0.421439
-0.86647999 1.03172314 1.09409118 -0.854415 0.020441 0.519190
-0.88722813 1.25338984 1.06479836 -0.521167 0.642604 0.561646
-0.92616379 0.93311399 0.40677801 -0.009517 0.997132 -0.075076
-0.89426690 0.58962035 0.41314101 -0.874156 -0.001331 0.485642
-0.90415317 0.89473253 0.44004029 -0.743704 -0.657607 -0.120240
-0.93742496 0.95817578 0.64783311 -0.970683 -0.228029 0.076010
-0.94502544 1.04599762 0.73305023 -0.973737 -0.168410 0.153215
-0.93756759 1.02244735 0.75279647 -0.979686 -0.146645 0.136786
-0.93617529 1.05374479 0.79191715 -0.982890 -0.117559 0.141798
-0.92878419 0.82831556 0.84092867 -0.999686 0.001001 -0.025017
-0.92210263 0.85435808 0.61860257 -0.998304 -0.039004 -0.043221
-0.89500862 0.80643207 0.45323259 -0.862638 -0.006708 -0.505777
-0.88794976 0.73704827 0.43976495 -0.931504 -0.001267 -0.363730
-0.88810724 0.61127150 0.43999711 -0.926978 -0.001272 -0.375114
-0.88917899 0.42595515 0.42232272 -0.907762 -0.003896 0.419467
-0.88647676 0.34598431 0.43516785 -0.981960 -0.003437 -0.189059
-0.90849310 0.39113244 0.38808039 -0.871091 -0.006690 0.491076
-0.83542812 0.69656777 1.15020323 -0.033755 -0.013297 0.999342
-0.84425098 0.40839756 1.14067256 -0.901361 -0.006541 0.433019
-0.86098456 1.23539281 1.10106277 -0.855928 0.028759 0.516295
-0.84765095 1.20887220 1.12746119 -0.913986 0.014342 0.405492
-0.92521465 0.38113344 0.70970309 -0.999036 -0.001020 -0.043880
-0.93203723 0.42540249 0.87303644 -0.999016 0.005123 -0.044059
-0.92628825 0.41569650 0.73520005 -0.999036 0.001020 -0.043880
-0.88537526 0.85312539 1.07112646 -0.783676 0.004132 0.621156
-0.89255953 0.92521930 1.06136048 -0.786330 0.009674 0.617732
-0.88812178 0.80675805 1.06798255 -0.782341 0.001375 0.622848
-0.87083668 1.09980989 1.08411157 -0.841224 0.020518 0.540298
-0.89100438 1.01784742 1.06067955 -0.773310 0.026569 0.633471
-0.92929542 1.00652540 0.95857501 -0.999820 0.018940 0.000997
-0.93187922 0.85444546 0.96766353 -0.999855 0.013011 -0.011009
-0.91207987 -0.82640064 1.00528336 -0.016785 -0.990340 0.137640
-0.92577696 -0.79597539 0.99113888 -0.971714 -0.025286 0.234801
-0.92713100 -0.68158937 0.99174744 -0.973408 -0.010671 0.228828
-0.93394595 -0.02385709 0.98935843 -0.989171 -0.010059 0.146420
-0.93466479 -0.06666213 0.96196300 -0.999753 -0.007033 -0.021100
-0.93727052 0.28990188 0.97913426 -0.999633 -0.001003 0.027071
-0.93699986 0.28500754 0.95940953 -0.999505 -0.003032 -0.031329
-0.93566179 0.49662527 0.97340685 -0.999936 0.006951 0.008937
-0.93551666 0.45811465 0.98476940 -0.996223 0.009589 0.086304
-0.93070781 0.86875844 0.93137693 -0.999562 0.011163 -0.027399
-0.92994845 0.94271874 0.93772060 -0.999768 0.013089 -0.017116
-0.91742486 0.22714807 0.54545707 -0.998375 0.003104 -0.056902
-0.91584271 0.18889320 0.51821059 -0.997991 0.001038 -0.063348
-0.84676242 0.00613650 1.12914610 -0.911147 -0.006499 0.412031
-0.85769790 0.07330784 1.10647488 -0.892024 -0.006588 0.451941
-0.85651225 0.14621744 1.10998487 -0.896243 -0.006580 0.443515
-0.90655565 -0.32302478 0.39116770 -0.859615 -0.001341 0.510941
-0.89108044 -0.40115762 0.41728559 -0.886089 -0.001321 0.463513
-0.90428704 0.22366239 0.46757612 -0.853912 0.001345 -0.520416
-0.89093918 0.04182841 0.44482726 -0.886089 0.001321 -0.463513
-0.89811093 0.10232621 0.45730323 -0.856545 0.001340 -0.516071
-0.91182196 -0.41467994 0.47977120 -0.917945 -0.001284 -0.396706
-0.91441727 0.02003907 0.49502695 -0.996710 0.001052 -0.081042
-0.91331631 0.10765681 0.48489204 -0.982957 0.003425 -0.183805
-0.92451173 -0.09580785 0.70006150 -0.999213 -0.001016 -0.039643
-0.92261159 -0.13811383 0.65417492 -0.999131 -0.001016 -0.041673
-0.92107570 -0.47365427 0.62526685 -0.999213 -0.001016 -0.039643
-0.92392009 -0.32184780 0.69788641 -0.999367 -0.003038 -0.035439
